-5.491000109916524252e+02 -5.525141541838700050e+02 -5.337584881503626093e+02 -5.310728824565961759e+02 -5.350182850210494507e+02 -5.241173736037958406e+02 -5.136717894346958246e+02 -5.097096344415146518e+02 -5.065870184468582238e+02 -4.952132872267965240e+02 -4.857856735101256618e+02 -4.895985801034069027e+02 -4.869092544615410816e+02 -4.689287119412006177e+02 -4.731045910059639823e+02 -4.632195312693938831e+02 -4.598828109901103858e+02 -4.473599010161020715e+02 -4.446782769744888810e+02 -4.404917728780374091e+02 -4.289504053793899629e+02 -4.263076245965744420e+02 -4.221893777165917641e+02 -4.188681380637913207e+02 -4.156541146878336122e+02 -4.038641160055150294e+02 -4.001500088981911176e+02 -3.970348088011627397e+02 -3.867372351039265368e+02 -3.818983338465761790e+02 -3.711482563460155006e+02 -3.679608107034863451e+02 -3.650736356829536362e+02 -3.519890544325953670e+02 -3.496517076474771102e+02 -3.453383652697307298e+02 -3.415345316008329064e+02 -3.383366865600277151e+02 -3.264325029187823475e+02 -3.232189789843390599e+02 -3.197348431948669827e+02 -3.158451846623995038e+02 -2.973938921091199177e+02 -3.005769727448656568e+02 -2.895903148975667136e+02 -2.866699353571203801e+02 -2.894649199759636531e+02 -2.695798843036199628e+02 -2.667905093470793645e+02 -2.617496591155978649e+02 -2.583048698691489449e+02 -2.545240463265037079e+02 -2.505650604416601652e+02 -2.383307508192440025e+02 -2.351597749741054031e+02 -2.313885770859351965e+02 -2.275469935957358985e+02 -2.234810482027655212e+02 -2.122497751143694984e+02 -2.080065245615722347e+02 -2.041640917365942869e+02 -2.009095792824237492e+02 -1.963097415059499156e+02 -1.927310642890030294e+02 -1.809199045008604116e+02 -1.766398862779864203e+02 -1.729305974453557724e+02 -1.695161327822547150e+02 -1.662536145302063915e+02 -1.553225024779900707e+02 -1.524599587780707850e+02 -1.497970674813161054e+02 -1.472464408966250744e+02 -1.455387609915495375e+02 -1.362346776270448458e+02 -1.344855754212094041e+02 -1.338508222929979183e+02 -1.331788831713985246e+02 -1.326877006146194447e+02 -1.242941639059940115e+02 -1.236884436990696798e+02 -1.240954589427100956e+02 -1.239900148629044736e+02 -1.242878595747547195e+02 -1.163772625761737487e+02 -1.166645789537473092e+02 -1.170120860094120303e+02 -1.171765286983919907e+02 -1.177018979795561222e+02 -1.178813831155552947e+02 -1.181243816881734006e+02 -1.183613730847172718e+02 -1.183959129011131353e+02 -1.187046600515762265e+02 -1.189019878677607096e+02 -1.187546131740216850e+02 -1.184728304812291810e+02 -1.186383060923530053e+02 -1.184997523923478582e+02 -1.186950047378448119e+02
-5.448936371508067396e+02 -5.332856844466592747e+02 -5.295133388477690914e+02 -5.274899768344661197e+02 -5.153617597826067822e+02 -5.127371140252125770e+02 -5.109591744484436617e+02 -4.990605552028515604e+02 -4.960403451521576699e+02 -4.856543067902999837e+02 -4.894880917616246734e+02 -4.701103660482871192e+02 -4.670877899621448250e+02 -4.712414319308626318e+02 -4.599094865150918281e+02 -4.490783416100312024e+02 -4.445805806030269309e+02 -4.424808076664132841e+02 -4.295810640576015658e+02 -4.259474722430200586e+02 -4.228616130473766930e+02 -4.124778495591634169e+02 -4.077230736717134505e+02 -3.973969273688344401e+02 -3.941995991672613968e+02 -3.976475873431239734e+02 -3.784854008098769214e+02 -3.753493273349354240e+02 -3.717278176801280551e+02 -3.680579643043672604e+02 -3.565077809927047383e+02 -3.525564839401904464e+02 -3.494947791460758708e+02 -3.459004479539733552e+02 -3.344382946286391984e+02 -3.305880754159178423e+02 -3.207560680482322368e+02 -3.168336340337780257e+02 -3.200378468112613746e+02 -3.014456913742108668e+02 -2.979793773874184808e+02 -2.929502774825284064e+02 -2.899213317463315889e+02 -2.871119836045847933e+02 -2.735129872701763247e+02 -2.709684261065218607e+02 -2.667444577015999698e+02 -2.626021941739350609e+02 -2.600780335700580395e+02 -2.471451047157070775e+02 -2.439091955658655024e+02 -2.403758091960179684e+02 -2.363079234129107249e+02 -2.327905686537530414e+02 -2.208855235141069784e+02 -2.173431176171653760e+02 -2.128327213410107106e+02 -2.091095108475622055e+02 -2.050985767886343183e+02 -1.930861432971555303e+02 -1.893631713368390024e+02 -1.847119151038344569e+02 -1.809513283296518011e+02 -1.774277671060581838e+02 -1.651232312103099957e+02 -1.618354263095321528e+02 -1.572231150916005333e+02 -1.538183338311664841e+02 -1.504425518823202310e+02 -1.384410065221342165e+02 -1.350654123034453846e+02 -1.317105157556731569e+02 -1.292630598999924700e+02 -1.266162081556636423e+02 -1.163742695604348825e+02 -1.148146069600740304e+02 -1.133198740594962004e+02 -1.121559288636047853e+02 -1.114811559297783390e+02 -1.104763486275037536e+02 -1.108356139596334060e+02 -1.105369753892937723e+02 -1.103581730626644486e+02 -1.106224362634087584e+02 -1.107017849615587863e+02 -1.107729762956936526e+02 -1.111005987162298965e+02 -1.114938580483043324e+02 -1.116552477577387918e+02 -1.122161039569784293e+02 -1.124567195888073456e+02 -1.129385449642963124e+02 -1.131481883607462038e+02 -1.128356379450495410e+02 -1.129870066378118025e+02 -1.131471400721010099e+02 -1.132291280241663429e+02 -1.133720306846967389e+02 -1.131440736736176689e+02 -1.130955949572450550e+02
-4.756765083620897485e+02 -4.655067648248396495e+02 -4.629892297360621569e+02 -4.503111576691657092e+02 -4.479645711798327739e+02 -4.446394816039971829e+02 -4.422467745874049569e+02 -4.310641443793507506e+02 -4.285003273842955878e+02 -4.197119527760060578e+02 -4.246451287356352395e+02 -4.059251260701798856e+02 -4.028010606685370476e+02 -4.067825935196035516e+02 -3.964976029539522528e+02 -3.937241241977324080e+02 -3.810574357940238315e+02 -3.780061476141997332e+02 -3.760286272230841860e+02 -3.715270977410453952e+02 -3.598927032596271260e+02 -3.570898837007417228e+02 -3.468627683608584675e+02 -3.507183600262870868e+02 -3.388393420822550866e+02 -3.287563546496327831e+02 -3.329749403298457082e+02 -3.217008413201569965e+02 -3.195160429004509979e+02 -3.163838873478977121e+02 -3.035027777984587374e+02 -3.014696686101293039e+02 -2.981372021839580384e+02 -2.936603467417313027e+02 -2.910782976119064074e+02 -2.789562604397566474e+02 -2.760139455369983921e+02 -2.728312701792621056e+02 -2.689352132648500628e+02 -2.659977961877265216e+02 -2.543737365543653937e+02 -2.504448709248912337e+02 -2.474027099008319510e+02 -2.433861063689659545e+02 -2.395825482417758394e+02 -2.362404466052106216e+02 -2.240971146946116903e+02 -2.206347694714514773e+02 -2.176892202897124946e+02 -2.138762505115770409e+02 -2.105017320586591723e+02 -1.985727842846082467e+02 -1.947735350911196406e+02 -1.911983544685958520e+02 -1.882455898584272234e+02 -1.847001094651114670e+02 -1.729142973514493065e+02 -1.699258658964439519e+02 -1.659937912671988443e+02 -1.624831560071738465e+02 -1.593995506820298829e+02 -1.473012154079737570e+02 -1.434056474100320884e+02 -1.396472351479064287e+02 -1.361419765430437678e+02 -1.324586344999053722e+02 -1.301311004598643990e+02 -1.251627501835048974e+02 -1.213489246253752185e+02 -1.186490407154737170e+02 -1.163647306606763436e+02 -1.136739353519480744e+02 -1.119232087505013169e+02 -1.097383715212475437e+02 -1.084859002461125073e+02 -1.075328713491879711e+02 -1.062087052327555057e+02 -1.059224464529750094e+02 -1.056595885641607993e+02 -1.052021676353097774e+02 -1.049422704058077045e+02 -1.050691135484135970e+02 -1.052792782378523384e+02 -1.052576585831198486e+02 -1.055758857330627052e+02 -1.058463790013809103e+02 -1.058513730184614019e+02 -1.063108464155093174e+02 -1.066007431856581888e+02 -1.067987928697335320e+02 -1.070136427135314108e+02 -1.073963906407645510e+02 -1.076461654611612602e+02 -1.077505321594410788e+02 -1.079013616098677062e+02 -1.079646628155124120e+02 -1.082241469198436192e+02 -1.079418251282494765e+02 -1.078262824931202459e+02 -1.081257080884904269e+02
-4.871259220135802934e+02 -4.674400892228925386e+02 -4.656335821967466586e+02 -4.618359235771298472e+02 -4.589168639037565072e+02 -4.478068565521322171e+02 -4.449602723617741731e+02 -4.423519413729750340e+02 -4.254096200101375871e+02 -4.286233657638900922e+02 -4.184094527166552098e+02 -4.156090952664918063e+02 -4.104550613417010254e+02 -4.008434448513532971e+02 -3.973770173793860749e+02 -3.929891367575385175e+02 -3.824619395608083323e+02 -3.778698158191126595e+02 -3.752278305396415590e+02 -3.716498668922133675e+02 -3.596375951373936459e+02 -3.569918611440388077e+02 -3.530795102399493999e+02 -3.434766549752152969e+02 -3.383050774056263776e+02 -3.277673582198189024e+02 -3.251237338917818533e+02 -3.282247001565546611e+02 -3.174767189274515431e+02 -3.065198753135037464e+02 -3.024250566502449828e+02 -2.993536927063986468e+02 -2.961927242886146132e+02 -2.922452913033576465e+02 -2.805737636347275838e+02 -2.771146668327033922e+02 -2.741099557826433397e+02 -2.701498338407952815e+02 -2.669614057260179720e+02 -2.551695790488990667e+02 -2.512202039668954399e+02 -2.483140338369856295e+02 -2.446245566520006491e+02 -2.415189088701009155e+02 -2.295662012659384459e+02 -2.258906854966388096e+02 -2.228261902495241884e+02 -2.192726711162069648e+02 -2.153921901318045116e+02 -2.039161047536042304e+02 -2.002683244319863718e+02 -1.968901820757145060e+02 -1.933464517569384498e+02 -1.895261951534376976e+02 -1.777859646685489849e+02 -1.738167901592253202e+02 -1.695587788710072630e+02 -1.663504479050104976e+02 -1.618564556169457660e+02 -1.583965754860459469e+02 -1.542022958471182505e+02 -1.500276407871174342e+02 -1.465830785727615080e+02 -1.429520470350590244e+02 -1.390176164289814835e+02 -1.351688056988955680e+02 -1.319441878243055726e+02 -1.278798227214139871e+02 -1.238058208175213224e+02 -1.201991340924689950e+02 -1.168679837711342344e+02 -1.132263333027535452e+02 -1.106575558615764976e+02 -1.079284895289650308e+02 -1.053900970678837155e+02 -1.041361631339790677e+02 -1.029367450555898813e+02 -1.016518156041471173e+02 -1.010208651992346063e+02 -1.002803952596227077e+02 -9.972293656051331823e+01 -1.001961924013055807e+02 -9.990833651143213956e+01 -1.001620425340909435e+02 -1.001657601202790318e+02 -1.007366058332305556e+02 -1.006147260504303631e+02 -1.010635072408306598e+02 -1.011533811192655037e+02 -1.016641807375679747e+02 -1.022062930253898116e+02 -1.023856589218777771e+02 -1.026510776631940303e+02 -1.032724459143369131e+02 -1.032068148468068784e+02 -1.031731444724094331e+02 -1.031563945916603018e+02 -1.031143980579346646e+02 -1.033663039208696262e+02 -1.035584598650878121e+02
-4.356048220804831885e+02 -4.395217681063440978e+02 -4.207621897083552653e+02 -4.179136605312465917e+02 -4.218551619301305209e+02 -4.029999218124249865e+02 -4.006643954798394134e+02 -3.962753529542641218e+02 -3.938185367584670757e+02 -3.902549141573371685e+02 -3.785023607402441144e+02 -3.755606634654620848e+02 -3.656828617344657459e+02 -3.689316902859172842e+02 -3.577709678153413506e+02 -3.478228434903621746e+02 -3.517416275825386265e+02 -3.412618547420330515e+02 -3.305374596246057308e+02 -3.341638429915890924e+02 -3.234553816262067585e+02 -3.217841824209857009e+02 -3.198961077236652386e+02 -3.084965954489343858e+02 -3.059379616799308224e+02 -3.023589049378609843e+02 -2.988116475570445800e+02 -2.951745291499137807e+02 -2.841280494600162001e+02 -2.806673558315713990e+02 -2.773711067372515799e+02 -2.737161826355676340e+02 -2.697043302873693165e+02 -2.583881273828141047e+02 -2.544431761596927402e+02 -2.503105441872286292e+02 -2.473371049536460191e+02 -2.442903329883940273e+02 -2.408871081311462490e+02 -2.285548950470964655e+02 -2.247091937357811844e+02 -2.226554394719910306e+02 -2.184640751187244803e+02 -2.149540818069268084e+02 -2.031815003393470533e+02 -2.002728107633278682e+02 -1.964848191468549032e+02 -1.930851167111273128e+02 -1.899429448927906492e+02 -1.864721030430096391e+02 -1.828290166061286754e+02 -1.795580163972869059e+02 -1.762827494587055526e+02 -1.722481246009207325e+02 -1.693978638426396799e+02 -1.658837988768624143e+02 -1.618114603637803270e+02 -1.591269213740961845e+02 -1.546371214178120681e+02 -1.507486198908423205e+02 -1.473007640117917276e+02 -1.431830832434155809e+02 -1.390429219346387981e+02 -1.356129967024078837e+02 -1.314615030396116708e+02 -1.280589616782409053e+02 -1.249632018637429809e+02 -1.207865620246066101e+02 -1.176787171095251949e+02 -1.134991389620134470e+02 -1.110971165833993410e+02 -1.078267482804690758e+02 -1.050018157558730678e+02 -1.029881707182323822e+02 -1.010833798133979826e+02 -9.886233430867289940e+01 -9.824240014464740511e+01 -9.690924093187712174e+01 -9.612002606687514117e+01 -9.622676470554493733e+01 -9.581116418621678577e+01 -9.552001454375638900e+01 -9.580591266438808873e+01 -9.580388654331110843e+01 -9.629443729703687893e+01 -9.593024369824519226e+01 -9.682454037659312007e+01 -9.642977917673269417e+01 -9.717846079126195491e+01 -9.763757650079369910e+01 -9.790517172844823790e+01 -9.828086631631373393e+01 -9.887560015566174343e+01 -9.908780208235519638e+01 -9.880144743223277715e+01 -9.892614489016881407e+01 -9.902229191898777572e+01 -9.921573492555867801e+01 -9.935399862105902002e+01 -9.954969047632874890e+01
-3.911322360768859312e+02 -3.889597341592779571e+02 -3.768971895144051700e+02 -3.677837895767826808e+02 -3.716151260217406502e+02 -3.682429990084376072e+02 -3.592391677881969372e+02 -3.545061525680815748e+02 -3.449149792591569508e+02 -3.424800576023156395e+02 -3.468203131005661817e+02 -3.370388181303308102e+02 -3.279719908369426093e+02 -3.238162250364384818e+02 -3.207127385888254025e+02 -3.183184583293322021e+02 -3.064842474356039475e+02 -3.032444682419545074e+02 -3.005490461966872431e+02 -2.973678043644823674e+02 -2.942207060601305102e+02 -2.915430032080937508e+02 -2.797844787436090996e+02 -2.765916714923708923e+02 -2.737975365822511549e+02 -2.707436509677046956e+02 -2.679006036210999468e+02 -2.560988550876674594e+02 -2.528142418169778693e+02 -2.502390831354397847e+02 -2.471582359252369372e+02 -2.437369087042892488e+02 -2.328079762711833212e+02 -2.291387387728024407e+02 -2.256322856996281416e+02 -2.232346833297170292e+02 -2.193230175578951844e+02 -2.157946947050305084e+02 -2.126011229576870960e+02 -2.090037550520610239e+02 -2.054350346805114782e+02 -2.014507247529975871e+02 -1.980240147480132578e+02 -1.958657735095213184e+02 -1.920479394276599692e+02 -1.883093590705911993e+02 -1.850251800409479586e+02 -1.823675717918016517e+02 -1.783101978737277591e+02 -1.752775584168728074e+02 -1.713010698767827762e+02 -1.686338459421615994e+02 -1.652917301402482337e+02 -1.615722658309161375e+02 -1.588637512527172362e+02 -1.553591733821963317e+02 -1.515947442698251848e+02 -1.485870309105560523e+02 -1.451312077232395268e+02 -1.411164706620143932e+02 -1.380199720541561419e+02 -1.340160056693584067e+02 -1.300913637220676264e+02 -1.268526499862974504e+02 -1.228458263790828227e+02 -1.188358712780427169e+02 -1.157461006120218343e+02 -1.128505040375706869e+02 -1.088983961211332741e+02 -1.062243426759240634e+02 -1.026710500446386050e+02 -1.009494386513179904e+02 -9.849891804873948331e+01 -9.630016432686313976e+01 -9.504020810338953140e+01 -9.397622517511229034e+01 -9.245331493910057929e+01 -9.198004370445875111e+01 -9.171782354229142697e+01 -9.167716440718970716e+01 -9.156085096037560334e+01 -9.139196404419710973e+01 -9.161212549972600527e+01 -9.191793707816884762e+01 -9.185888676226572613e+01 -9.244493466607124788e+01 -9.246867147463603942e+01 -9.291607044913186542e+01 -9.348414961817375968e+01 -9.375098348652377922e+01 -9.437881381177065521e+01 -9.483119894405962214e+01 -9.530996533682224481e+01 -9.494096802947697711e+01 -9.517710444223723698e+01 -9.526880715660102794e+01 -9.576940644354976939e+01 -9.584058828732480606e+01 -9.578913346592847233e+01 -9.560951123572544930e+01
-3.601969607146818362e+02 -3.653154516502221441e+02 -3.471338197628484750e+02 -3.452488144055968746e+02 -3.416411730743029125e+02 -3.403510992596799269e+02 -3.377856223312916200e+02 -3.344939847964682258e+02 -3.229310261633499408e+02 -3.198301582927409754e+02 -3.175529789901672757e+02 -3.142356332171284521e+02 -3.108383305474295639e+02 -3.003728373442286852e+02 -2.970038014222018319e+02 -2.939312780747984561e+02 -2.913246838225580859e+02 -2.878858425578283118e+02 -2.766335117089838604e+02 -2.738841266485375741e+02 -2.705575309185668402e+02 -2.677505339031137055e+02 -2.648275255075075165e+02 -2.531458902559133151e+02 -2.508712950939005850e+02 -2.475664613926696518e+02 -2.444704941151843798e+02 -2.419545173394132576e+02 -2.383762115560345194e+02 -2.351187848435121737e+02 -2.331957172016470281e+02 -2.295225892276923503e+02 -2.260350296914809292e+02 -2.237476938640989488e+02 -2.200855291058443299e+02 -2.166856127845854587e+02 -2.144730784458870403e+02 -2.106181627657047954e+02 -2.075933522330175265e+02 -2.047752205713848355e+02 -2.013378942610970626e+02 -1.980737498069716480e+02 -1.950821250150584660e+02 -1.914945453618647946e+02 -1.877876711288707838e+02 -1.846951547769517106e+02 -1.807144220793644536e+02 -1.772548015047213994e+02 -1.738077157199071507e+02 -1.700267729348436490e+02 -1.663581206759048143e+02 -1.641321722499108091e+02 -1.602784184409551642e+02 -1.567646250987564258e+02 -1.532322412280371964e+02 -1.504744978200696721e+02 -1.474208359627245670e+02 -1.433464657690948059e+02 -1.400156667340934007e+02 -1.371948011101432030e+02 -1.335054394743281136e+02 -1.294371793415766092e+02 -1.267781507252869631e+02 -1.224612520370138924e+02 -1.185849953698397883e+02 -1.156001673638949541e+02 -1.113072082055730050e+02 -1.077060317112661636e+02 -1.057421057982814432e+02 -1.020193429869500221e+02 -9.883161679115886500e+01 -9.660092284259349071e+01 -9.372515642809162273e+01 -9.278498973428207819e+01 -9.105756243361305735e+01 -8.976837650372293353e+01 -8.835245769809208127e+01 -8.870232285126090233e+01 -8.796592549477263390e+01 -8.806820386422938896e+01 -8.781138956796196737e+01 -8.776540640822028649e+01 -8.817192387218433680e+01 -8.808989663422988770e+01 -8.870428456115092786e+01 -8.884815002426850583e+01 -8.914582605590194930e+01 -8.971166252560075804e+01 -9.024824655615698532e+01 -9.052622763478893830e+01 -9.099535700306759622e+01 -9.174535253827326642e+01 -9.143530112425912648e+01 -9.180002417878989718e+01 -9.204382325620173333e+01 -9.252577769716626221e+01 -9.219661268015393318e+01 -9.276999258644684687e+01 -9.254290232633212554e+01 -9.262004986086117242e+01
-3.403736820864212405e+02 -3.394279803134301119e+02 -3.354249992777137095e+02 -3.330987162346507375e+02 -3.214392142481477777e+02 -3.184216810071535519e+02 -3.161326499098371414e+02 -3.126708447832085085e+02 -3.097199418579688199e+02 -3.074677991817147813e+02 -2.957774876388208440e+02 -2.927019378395557396e+02 -2.902206146961005970e+02 -2.872225943759178222e+02 -2.839269060364387087e+02 -2.730857455469093793e+02 -2.697819937172435516e+02 -2.666007241502674106e+02 -2.647003868560386763e+02 -2.609011737320319071e+02 -2.576828189025495703e+02 -2.554632918897272020e+02 -2.521286929644614077e+02 -2.502056030466774814e+02 -2.465646351557663536e+02 -2.429939083635632642e+02 -2.406580387859485768e+02 -2.373824708649823378e+02 -2.342958455845968047e+02 -2.316393883840996750e+02 -2.284755986932391352e+02 -2.250925487902110547e+02 -2.227736457150634521e+02 -2.191811052683973742e+02 -2.155345072588179391e+02 -2.136983161701099903e+02 -2.096892734871681228e+02 -2.067258202995571423e+02 -2.041351322764584211e+02 -2.005793639628158758e+02 -1.972494373639786431e+02 -1.946945426828693826e+02 -1.911409124984551795e+02 -1.876393765969076242e+02 -1.852819274382401886e+02 -1.812330296429226451e+02 -1.779432255040677546e+02 -1.746957427486586880e+02 -1.709253153989608052e+02 -1.671310361584538384e+02 -1.639504136406541761e+02 -1.601747064601530042e+02 -1.562714659726298123e+02 -1.544433947609871893e+02 -1.503004730129339634e+02 -1.468366861728301274e+02 -1.432371359570508957e+02 -1.396616769750070546e+02 -1.368184965089941727e+02 -1.335532657401661822e+02 -1.297034784203836466e+02 -1.268213946763026883e+02 -1.234714945227535452e+02 -1.195922337777618338e+02 -1.166676118931256809e+02 -1.129040670347624769e+02 -1.085761631351750509e+02 -1.059748193679989896e+02 -1.019887238552691429e+02 -9.838220571691761052e+01 -9.496386122039119471e+01 -9.270850013815160651e+01 -9.095149041807729873e+01 -8.888692417421862046e+01 -8.753134751503931454e+01 -8.566537122944930616e+01 -8.606478848766018075e+01 -8.512091742246882120e+01 -8.457576992185767040e+01 -8.442538869188462058e+01 -8.458674883392643551e+01 -8.470303451114168070e+01 -8.481935821915894280e+01 -8.511275165386615527e+01 -8.543109404414549601e+01 -8.592246098134540944e+01 -8.598492970459133744e+01 -8.653788889938060436e+01 -8.688162655151941749e+01 -8.771268055678721964e+01 -8.827436606558060816e+01 -8.823860823990305846e+01 -8.850117206067656639e+01 -8.905261666333899484e+01 -8.911772423591864367e+01 -8.943329221159859799e+01 -8.954717709934203640e+01 -9.012244142259240220e+01 -8.970794415174322012e+01 -9.011138127491082628e+01
-3.319927336094364705e+02 -3.286552970903193227e+02 -3.256851456442930157e+02 -3.147902152578573123e+02 -3.117702524535092152e+02 -3.088215396360809564e+02 -3.065001260391659343e+02 -3.031298528874951899e+02 -3.000223943355481424e+02 -2.895299227424064270e+02 -2.860583513488119252e+02 -2.829307221491178552e+02 -2.807049742602363267e+02 -2.774929086965964871e+02 -2.748062991006758011e+02 -2.717924268809867954e+02 -2.686322574186939960e+02 -2.654492591709096132e+02 -2.628532605153235409e+02 -2.599781685918559333e+02 -2.565456387031484837e+02 -2.543408291605830698e+02 -2.508663969568671064e+02 -2.483104791970294229e+02 -2.454216726992655140e+02 -2.414136765929250998e+02 -2.395654386331772514e+02 -2.359907448149161269e+02 -2.326758088157966995e+02 -2.302687679531500464e+02 -2.268632516577222873e+02 -2.234800635864707772e+02 -2.211586779316426714e+02 -2.178288311518037119e+02 -2.137138711757564522e+02 -2.120942677320878147e+02 -2.081043636580512270e+02 -2.048946979611220058e+02 -2.024715385546483901e+02 -1.988649425886947597e+02 -1.954395059252125293e+02 -1.931641825073259611e+02 -1.894279316345070185e+02 -1.860830168587390858e+02 -1.834868120860721774e+02 -1.799117470511445731e+02 -1.763942903414665295e+02 -1.739258546759548381e+02 -1.699739403386336676e+02 -1.666519844732139290e+02 -1.633107408662346813e+02 -1.595015821064922363e+02 -1.558309844651373908e+02 -1.525342328556139933e+02 -1.484953645255291121e+02 -1.447460250591690567e+02 -1.413947767201440229e+02 -1.385308250768413814e+02 -1.348737114352104527e+02 -1.311983883955151384e+02 -1.278667374805026213e+02 -1.248947303713908212e+02 -1.217209753461507944e+02 -1.175731217822222590e+02 -1.148620758635696006e+02 -1.107086276565215144e+02 -1.068660104107174931e+02 -1.036408150898149927e+02 -9.983301985396778377e+01 -9.616244406095117370e+01 -9.249508412210532526e+01 -9.153631366407967107e+01 -8.837834151701974861e+01 -8.659668585254297568e+01 -8.460132767188714809e+01 -8.310326535494232303e+01 -8.318910979953174945e+01 -8.199325446383446092e+01 -8.178311364101324443e+01 -8.117830006531039544e+01 -8.177284594671280615e+01 -8.169619111029467717e+01 -8.198233662108165731e+01 -8.216570657873501204e+01 -8.260645090141339608e+01 -8.279902709522022519e+01 -8.291357712647146627e+01 -8.384303696449417487e+01 -8.387140057141157001e+01 -8.455790095015062491e+01 -8.540579975894399922e+01 -8.601129659911624969e+01 -8.590540555203236295e+01 -8.627435415692666254e+01 -8.661052004075384048e+01 -8.699954280343439450e+01 -8.740431652384495465e+01 -8.746773123145328555e+01 -8.744643990364141928e+01 -8.789436168362632884e+01
-3.241545752087457686e+02 -3.224616056238021429e+02 -3.198875066658571882e+02 -3.083889308881114744e+02 -3.054738226551028788e+02 -3.025529499842137966e+02 -2.997056678849734226e+02 -2.967277449074679225e+02 -2.941859281189497324e+02 -2.913217093904020771e+02 -2.886314280208139849e+02 -2.853871401121133999e+02 -2.820601984717835649e+02 -2.797940273851800725e+02 -2.766319536023686965e+02 -2.728861719444699361e+02 -2.711585257037773431e+02 -2.674833354823418290e+02 -2.641330808629552394e+02 -2.618720784969221995e+02 -2.582887921181738307e+02 -2.553117542335374139e+02 -2.525391978061509235e+02 -2.493627549493416211e+02 -2.460830304367314625e+02 -2.437085479607879961e+02 -2.401887150882212154e+02 -2.378316842387428096e+02 -2.343718728997239964e+02 -2.308156491359692097e+02 -2.283859158605351922e+02 -2.248360298255092005e+02 -2.214649727776405257e+02 -2.189272223937167894e+02 -2.155143901047021018e+02 -2.119158267794944663e+02 -2.097207973154795582e+02 -2.058963802354994641e+02 -2.024880956113439936e+02 -2.001185264105991450e+02 -1.963788410293445281e+02 -1.928939122308835863e+02 -1.903203584365022039e+02 -1.867412014963301203e+02 -1.832975719610576562e+02 -1.807442443438969235e+02 -1.770517696197562145e+02 -1.737250521073609661e+02 -1.708508918728055903e+02 -1.672294526624634443e+02 -1.637338837304996559e+02 -1.604583431425605227e+02 -1.563543567633283828e+02 -1.532869456477688459e+02 -1.491070626958347702e+02 -1.448039202079236816e+02 -1.420090607714381576e+02 -1.374309233510896320e+02 -1.351081838247789619e+02 -1.317902594059896728e+02 -1.276707542868858383e+02 -1.237199478800594079e+02 -1.216797514949669790e+02 -1.174984993850250987e+02 -1.139533316470802617e+02 -1.110811450876405502e+02 -1.066688647197704256e+02 -1.027766592584346057e+02 -9.973809821982695212e+01 -9.557049408666412660e+01 -9.177924736758609470e+01 -8.935424582747168643e+01 -8.701171482109123190e+01 -8.488260224407403598e+01 -8.290541217473308677e+01 -8.083346577886688067e+01 -8.073325003379743237e+01 -7.988478482089624322e+01 -7.928364892641911865e+01 -7.851335922615461982e+01 -7.891889710932197488e+01 -7.875543108636952638e+01 -7.964433042103195248e+01 -7.927338666872884687e+01 -7.957470128567004508e+01 -8.030028768671897410e+01 -8.020751445938344659e+01 -8.107675443379923763e+01 -8.158100349462834799e+01 -8.197990566659098022e+01 -8.276322856692183905e+01 -8.327573783213071579e+01 -8.398272540596238400e+01 -8.413437813785864705e+01 -8.419985328946594905e+01 -8.523705249678685902e+01 -8.525771601881214679e+01 -8.549175646588714983e+01 -8.601270638504038857e+01 -8.606309401083501598e+01
-2.864266962638450309e+02 -2.838217236566737256e+02 -2.809376097334905467e+02 -2.783839032292589764e+02 -2.758529000408915408e+02 -2.731234207410200270e+02 -2.704226032581673280e+02 -2.682017006768331839e+02 -2.651714302295964103e+02 -2.622793898741294356e+02 -2.603377806279167999e+02 -2.572271745294571019e+02 -2.540153134051835480e+02 -2.524281602836603895e+02 -2.489185843422452535e+02 -2.460497712123747931e+02 -2.444222920048335936e+02 -2.409867238184777989e+02 -2.377306835068342821e+02 -2.346535365788791410e+02 -2.328043856280716000e+02 -2.295999086063733898e+02 -2.267097230890502715e+02 -2.245877488086207450e+02 -2.212948963820535937e+02 -2.181934318308485672e+02 -2.163791607987598695e+02 -2.129006610794954497e+02 -2.098440059044713166e+02 -2.080213186890666748e+02 -2.045282314275686417e+02 -2.015723879087583441e+02 -1.994565098547524826e+02 -1.961305166825100628e+02 -1.927411844879408704e+02 -1.899979525803581737e+02 -1.877123853236723221e+02 -1.843422851409749512e+02 -1.814273637845194003e+02 -1.790055185205915791e+02 -1.756524662522795950e+02 -1.723697152983453407e+02 -1.699487083698767833e+02 -1.662965122626853258e+02 -1.627608231093524864e+02 -1.602470955076045982e+02 -1.564157587331314119e+02 -1.528725309571537423e+02 -1.493516213943807713e+02 -1.464121683175428075e+02 -1.441042842017284045e+02 -1.404999408299432275e+02 -1.375868166645733197e+02 -1.340742814218339447e+02 -1.318025418086228626e+02 -1.287590609924494345e+02 -1.253391577710960831e+02 -1.218800219470012962e+02 -1.201069208718381560e+02 -1.164505412219305498e+02 -1.130368641085732833e+02 -1.098043536042665664e+02 -1.070856488062367617e+02 -1.036508481729497078e+02 -1.001925475701594337e+02 -9.755585455294504982e+01 -9.361707334175083872e+01 -9.003755617370850928e+01 -8.812694552864547859e+01 -8.473584558867811722e+01 -8.351303652316016723e+01 -8.158067881472288718e+01 -7.950673108553044699e+01 -7.809159628465178571e+01 -7.680211856599947851e+01 -7.774456629103946170e+01 -7.665665536477277442e+01 -7.638860474366879316e+01 -7.642295519082934163e+01 -7.641965304897777855e+01 -7.692115340726971340e+01 -7.702621179091076442e+01 -7.712294912109766187e+01 -7.774577692403596529e+01 -7.809444141317965205e+01 -7.803990075007541805e+01 -7.907442855785073732e+01 -7.961556970505662889e+01 -8.024750796873738068e+01 -8.071190593901511079e+01 -8.114580635351910587e+01 -8.218035056247290981e+01 -8.286454435291656750e+01 -8.236050225937242431e+01 -8.233987105243701876e+01 -8.260601433459325449e+01 -8.356499116335703548e+01 -8.381607025536486333e+01 -8.330569206619389888e+01 -8.324076920385002154e+01
-2.942407304711615552e+02 -2.917599592563179840e+02 -2.888695228650121294e+02 -2.859884985379208615e+02 -2.839418704554479973e+02 -2.808287897887983036e+02 -2.777771308907852017e+02 -2.758866543487229137e+02 -2.727045460912561339e+02 -2.696268653280334320e+02 -2.677240368333598894e+02 -2.642179343269460787e+02 -2.612892054369951325e+02 -2.591375311104226284e+02 -2.559641837577887031e+02 -2.528680747656609071e+02 -2.502519351947200335e+02 -2.474777267719143197e+02 -2.442225516066604882e+02 -2.414758080181019864e+02 -2.388126231685227197e+02 -2.358726529157156619e+02 -2.328674104271848364e+02 -2.305518640895574549e+02 -2.271343622166106684e+02 -2.242700261725818791e+02 -2.218007009840894739e+02 -2.185226872983226372e+02 -2.154362507065105774e+02 -2.132418286417646414e+02 -2.096950082458094471e+02 -2.067758612532901452e+02 -2.044371372160672991e+02 -2.011883875121544634e+02 -1.980280448408685743e+02 -1.957074775535876086e+02 -1.921669861081028898e+02 -1.888917051650618077e+02 -1.866835157056776211e+02 -1.831771255219638874e+02 -1.798091755786623480e+02 -1.775803368045454818e+02 -1.736287543543427319e+02 -1.699779067754537607e+02 -1.672985994514746153e+02 -1.633218969252674242e+02 -1.594970956953232530e+02 -1.560970629906450142e+02 -1.528485112996094415e+02 -1.503801896586977591e+02 -1.471176652807275786e+02 -1.437631501801379841e+02 -1.400606222107829524e+02 -1.381983619214756231e+02 -1.346002990612755639e+02 -1.309929763714434330e+02 -1.276133015476826387e+02 -1.256878919295063071e+02 -1.218350744661872085e+02 -1.184584255565878976e+02 -1.163909047034996433e+02 -1.121619179913606530e+02 -1.088471534401530789e+02 -1.059933584613051494e+02 -1.019482291720717626e+02 -9.808272147423483034e+01 -9.542742954752544904e+01 -9.163729020449451923e+01 -8.891710845476552549e+01 -8.619936443370374946e+01 -8.315490425851425016e+01 -8.031029962434971026e+01 -7.927076338442682868e+01 -7.766484918654992953e+01 -7.596630180686685208e+01 -7.470870461807152196e+01 -7.551593243169713787e+01 -7.470410725883419900e+01 -7.422750217658688143e+01 -7.458095794569544523e+01 -7.457160035498715445e+01 -7.469245323761420252e+01 -7.523046534821858700e+01 -7.536067507680789390e+01 -7.638346661267537741e+01 -7.648897989062794522e+01 -7.642599264090540601e+01 -7.757276818473891922e+01 -7.782910795949523219e+01 -7.790261774552358531e+01 -7.958600273852744067e+01 -7.945317328934503109e+01 -7.975454405636384081e+01 -8.122818028776691790e+01 -8.121760314181291562e+01 -8.122329620968531572e+01 -8.932701499531634681e+01 -8.955828773590104674e+01 -8.207628743093887635e+01 -8.136492000437904437e+01
-2.683345993603448960e+02 -2.658749598749993766e+02 -2.636898888778012520e+02 -2.607013034908827080e+02 -2.583642108030426243e+02 -2.562683168794329731e+02 -2.532917558381277559e+02 -2.505221644508930012e+02 -2.480578240543151480e+02 -2.458815061381310159e+02 -2.428812905108374025e+02 -2.402300298046501155e+02 -2.381349522926817031e+02 -2.350240905189997420e+02 -2.325234510947198316e+02 -2.306592897383815455e+02 -2.275873580234408564e+02 -2.245626285782931859e+02 -2.219437056521052796e+02 -2.198840625261361197e+02 -2.169456492768247244e+02 -2.141060972601284220e+02 -2.121555705150724407e+02 -2.089698853148617843e+02 -2.060382105737417646e+02 -2.035914696091754479e+02 -2.008343969060468908e+02 -1.974818736821364666e+02 -1.945090463568542418e+02 -1.921115075027825583e+02 -1.881653479953122883e+02 -1.849095274766372654e+02 -1.818657121087668429e+02 -1.805422711867242924e+02 -1.770187659785119365e+02 -1.738846405286366235e+02 -1.711098391152719955e+02 -1.677178138412580211e+02 -1.657948921196144170e+02 -1.627119870683551710e+02 -1.596749841053673720e+02 -1.566238931007330848e+02 -1.545902052468707666e+02 -1.517978536684748860e+02 -1.485793512620951731e+02 -1.451995013798240279e+02 -1.440208922659293194e+02 -1.405178584096951511e+02 -1.372014473616671353e+02 -1.344793690953760290e+02 -1.324773270895057919e+02 -1.295093031420276475e+02 -1.261492139542851447e+02 -1.243143010413906779e+02 -1.212270855980060418e+02 -1.174333463774306381e+02 -1.143395755543883610e+02 -1.117835724302139226e+02 -1.080106055346325036e+02 -1.048460879295425912e+02 -1.023603545593070976e+02 -9.899833980580319803e+01 -9.670455041787758432e+01 -9.320242971933311082e+01 -9.130940404407951405e+01 -8.733146558079617705e+01 -8.418385913211881189e+01 -8.346632016959350153e+01 -8.021314292393468293e+01 -7.811768023117340931e+01 -7.622416373675444845e+01 -7.554138997208914930e+01 -7.429909117550397468e+01 -7.298549091592234106e+01 -7.276037632493432739e+01 -7.327305746411273901e+01 -7.233827236378994030e+01 -7.252357630403113831e+01 -7.294610291122127421e+01 -7.294660787626997944e+01 -7.321456754247438425e+01 -7.384948110355919937e+01 -7.426624884518395220e+01 -7.405981820593410703e+01 -7.510919198354116588e+01 -7.520021226334921494e+01 -7.513422456774378588e+01 -8.402632343757237265e+01 -7.680410188598119703e+01 -7.662509454707750933e+01 -8.560900593158876859e+01 -7.846734885149228944e+01 -7.821836598031551091e+01 -8.698863802183919347e+01 -7.991789639509579501e+01 -7.972218514149767543e+01 -7.927618758093558426e+01 -7.987502842400098757e+01 -8.011155829881172963e+01 -7.981973115732749591e+01
-2.832254436568040319e+02 -2.798417532064685247e+02 -2.782958295321434434e+02 -2.757096910366233828e+02 -2.724900815802977263e+02 -2.717275424975796341e+02 -2.691367098555072630e+02 -2.677534328606708982e+02 -2.649428700249425219e+02 -2.625340501398345054e+02 -2.597988892367080211e+02 -2.567317492083824959e+02 -2.547481673419319748e+02 -2.513585737562727331e+02 -2.485147366775026398e+02 -2.464438345118002758e+02 -2.430347234745008222e+02 -2.400304482631555629e+02 -2.373926947056170889e+02 -2.349164180000248621e+02 -2.316730819859654389e+02 -2.291676510068316475e+02 -2.265058278750961449e+02 -2.232181520774510943e+02 -2.203391954004575553e+02 -2.177143493570236501e+02 -2.144959884622562640e+02 -2.107253767661808297e+02 -2.082030395239542599e+02 -2.040480229231759211e+02 -2.008455845403518651e+02 -1.995636172229459362e+02 -1.957163307087826638e+02 -1.921357868306340038e+02 -1.889099648616916909e+02 -1.857084788795227155e+02 -1.836045960977596110e+02 -1.801738967174330810e+02 -1.771198853649956391e+02 -1.733295184144184304e+02 -1.714077579040623220e+02 -1.682197059406575192e+02 -1.646188462932415746e+02 -1.625500313998283559e+02 -1.598323237613379035e+02 -1.558363829850731577e+02 -1.525502074768591285e+02 -1.510450860184394060e+02 -1.471876981306180312e+02 -1.438810249966861363e+02 -1.420568091290899702e+02 -1.386466549238851655e+02 -1.349296365172349965e+02 -1.323810903728031576e+02 -1.297240743890870647e+02 -1.263804428319284909e+02 -1.232626705831591920e+02 -1.208897280776569545e+02 -1.171998518333784602e+02 -1.134749520251612722e+02 -1.112281452157975536e+02 -1.069172820179708907e+02 -1.031879602502367703e+02 -1.000384734347645548e+02 -9.670000471569973399e+01 -9.355441670170583279e+01 -9.118445114062855339e+01 -8.825405996660956021e+01 -8.476567604956574087e+01 -8.127648227280461413e+01 -8.008413025450541056e+01 -7.703489426165072018e+01 -7.463785171220894199e+01 -7.425675600673665144e+01 -7.236319621357858978e+01 -7.175617344074309756e+01 -7.102451659302273868e+01 -7.075632387191521389e+01 -7.103511876152032301e+01 -7.073647863845312145e+01 -7.050823670220034955e+01 -7.184136757831939235e+01 -7.232560344634697458e+01 -7.107583896106572752e+01 -7.276990389558932293e+01 -7.318961741527103015e+01 -8.104898809886356048e+01 -7.416200076602012814e+01 -7.382485520521319700e+01 -7.525805555402624236e+01 -7.486386569812593450e+01 -7.635982314129414306e+01 -7.615703604210669653e+01 -7.647357594747735732e+01 -7.753505647742049689e+01 -7.737915874594229138e+01 -7.714507537006906546e+01 -7.810214638925242525e+01 -7.809174100347223657e+01 -7.795595807534934352e+01
-2.611742632855847432e+02 -2.587114191873869231e+02 -2.572546979355274175e+02 -2.540063191841674382e+02 -2.510189759323167777e+02 -2.494767783825496679e+02 -2.467461007193243177e+02 -2.435592925611472879e+02 -2.408415201622485142e+02 -2.395204207852740126e+02 -2.361548141501927205e+02 -2.331850414630283410e+02 -2.316331306209381182e+02 -2.286514984128929768e+02 -2.256268487568213743e+02 -2.240802011178805060e+02 -2.212828381080074678e+02 -2.179906584425450546e+02 -2.148009894036678133e+02 -2.139524269962973619e+02 -2.104980293038750574e+02 -2.073501712180474215e+02 -2.056675668378954072e+02 -2.026958892100363698e+02 -1.994108812969224118e+02 -1.964372596103169144e+02 -1.953732649695636496e+02 -1.918019241525349230e+02 -1.885009084667690047e+02 -1.871155794321250028e+02 -1.838710319733485221e+02 -1.807822031883611089e+02 -1.776929701330298030e+02 -1.765221084808209753e+02 -1.729025739960065380e+02 -1.697715738848170304e+02 -1.671468423240049788e+02 -1.651376039129844742e+02 -1.619080861936814131e+02 -1.588957897531217043e+02 -1.574587880300967981e+02 -1.542815017395633390e+02 -1.508370445130192365e+02 -1.483808954021479281e+02 -1.462923569525700032e+02 -1.433200295638178261e+02 -1.403626734658269584e+02 -1.385746731230545379e+02 -1.354507428495387842e+02 -1.317747265671019363e+02 -1.286595137003845650e+02 -1.262265205832306094e+02 -1.221497019075570449e+02 -1.193894204913700321e+02 -1.166632851719234765e+02 -1.131905858089492796e+02 -1.113783833110876316e+02 -1.081969163826495759e+02 -1.056361010683094150e+02 -1.019548211334863481e+02 -9.906914437528229200e+01 -9.779031272828532906e+01 -9.404226263683153775e+01 -9.119417140148227929e+01 -8.820562813335162389e+01 -8.647308271977152572e+01 -8.383099339695220920e+01 -8.021546972076595239e+01 -7.809768415137057218e+01 -7.676649116162491282e+01 -7.409748658763226103e+01 -7.212330483942611181e+01 -7.213988886572039405e+01 -7.027388242087486958e+01 -6.925150413641090097e+01 -6.977689957901237960e+01 -6.975060355151022407e+01 -6.918655021578186393e+01 -7.743369469874126310e+01 -6.973264303295741229e+01 -6.990559080796579394e+01 -7.822865775738736716e+01 -7.115372602026077686e+01 -7.019268475298507326e+01 -7.171201870530842370e+01 -7.148338235576875377e+01 -7.151784776216481987e+01 -7.271421742334506177e+01 -7.253506155455629312e+01 -7.382365118140896243e+01 -7.349199733599354545e+01 -7.445055459555389632e+01 -7.444076252362934554e+01 -7.484988358996814384e+01 -7.482909873292160796e+01 -7.593395782579811737e+01 -7.577720466708315428e+01 -7.579998993947376107e+01 -7.562833016264409025e+01 -7.635832690979881932e+01
-2.414269824095034664e+02 -2.388629047317021730e+02 -2.376971684477684050e+02 -2.347511960426901112e+02 -2.318977173910013789e+02 -2.296491230721914292e+02 -2.282253448781416409e+02 -2.249136277670702100e+02 -2.222643327106468405e+02 -2.197661244479296840e+02 -2.182545350413937513e+02 -2.153205515373936123e+02 -2.124814542822612680e+02 -2.098742249419642860e+02 -2.086599917069872845e+02 -2.055460048529125743e+02 -2.025818101091164749e+02 -2.017752249454580351e+02 -1.984052486448320565e+02 -1.957887168398481492e+02 -1.930559686506556716e+02 -1.917012779629493195e+02 -1.889161018075714082e+02 -1.857328885966867063e+02 -1.832383826705333263e+02 -1.816664388482014658e+02 -1.786433608972337197e+02 -1.761204515275469475e+02 -1.732939492187122141e+02 -1.717235839470534415e+02 -1.688692298597302397e+02 -1.662234661969887384e+02 -1.639704804551164443e+02 -1.618332490041840686e+02 -1.591561254871104722e+02 -1.565453503985991972e+02 -1.537340876293450549e+02 -1.520103462547257891e+02 -1.486977327810245697e+02 -1.457796168973201247e+02 -1.441084029671320081e+02 -1.403115185805508531e+02 -1.372535126263713039e+02 -1.344456738023724256e+02 -1.316234225415954882e+02 -1.287272304342014877e+02 -1.257459005109387533e+02 -1.242272435624488054e+02 -1.217983352221258997e+02 -1.184864646489483846e+02 -1.158160853582380838e+02 -1.147015315152437012e+02 -1.115192090019594389e+02 -1.087165744815384016e+02 -1.058140181316273782e+02 -1.040527281645575499e+02 -1.019256355282389421e+02 -9.844718402018295933e+01 -9.542760640255926319e+01 -9.568242405745456836e+01 -9.509414707036913228e+01 -9.114813973107897027e+01 -8.793916517894525953e+01 -8.570059113478900770e+01 -8.321193069534560038e+01 -7.953807956437451310e+01 -7.735762162498758698e+01 -7.533441405293665127e+01 -7.275442004598856727e+01 -7.059084256799107493e+01 -6.977741881025045245e+01 -6.958884299096686732e+01 -6.847562671235664311e+01 -6.859098131394819120e+01 -6.799779507285619218e+01 -6.747901125372476372e+01 -7.555549780562176920e+01 -6.809875923354937299e+01 -6.765665987965917338e+01 -6.839079053478093329e+01 -6.806396784520386234e+01 -6.819160782859705705e+01 -6.942653760392630602e+01 -6.860692969663811880e+01 -6.983021858025767870e+01 -7.000511573590475223e+01 -7.092562014733030651e+01 -7.066701435460728931e+01 -7.103254694971693084e+01 -7.232816433733651706e+01 -7.216396022712628167e+01 -7.231148212191199320e+01 -7.316295042812384963e+01 -7.313475158073885041e+01 -7.331698157401750393e+01 -7.315553641597244905e+01 -7.384383199752279836e+01 -7.403107885545703937e+01 -7.437043859575044280e+01 -7.360775076866131883e+01
-2.660598490130795994e+02 -2.632302529988437527e+02 -2.607941347548125464e+02 -2.583778846864993284e+02 -2.555641864109271921e+02 -2.527318132353724991e+02 -2.508489605724191733e+02 -2.479200880346378995e+02 -2.451343898212702186e+02 -2.433947973632309640e+02 -2.402505542032465655e+02 -2.370805395753609446e+02 -2.348519349932124101e+02 -2.326376020640681190e+02 -2.294749177965709066e+02 -2.267503903797498879e+02 -2.247662462417945051e+02 -2.215190804881219151e+02 -2.185357661783909293e+02 -2.171629195484368609e+02 -2.134580904631739031e+02 -2.105683132616557032e+02 -2.078148135893128483e+02 -2.056281007186391321e+02 -2.028552166995095263e+02 -1.996024032858540522e+02 -1.979252478122154457e+02 -1.945456709832186561e+02 -1.915649958438516762e+02 -1.891052193280010556e+02 -1.868221334772959779e+02 -1.836854762083727337e+02 -1.805850131279682955e+02 -1.789243208752005216e+02 -1.756810875216773979e+02 -1.726337784563790194e+02 -1.708273693461120502e+02 -1.673819945285420090e+02 -1.641193003088407636e+02 -1.611411983844095062e+02 -1.583576082980420949e+02 -1.546699170425178522e+02 -1.516158015575430227e+02 -1.487271795984165692e+02 -1.450337362055196593e+02 -1.419002658769605318e+02 -1.405766854618306922e+02 -1.371602336951341385e+02 -1.334739500447384728e+02 -1.309011627175239880e+02 -1.293667957634057757e+02 -1.259145581810175401e+02 -1.227797134314515404e+02 -1.212936721105803315e+02 -1.179034879366642343e+02 -1.147365089723492417e+02 -1.114449148558399685e+02 -1.098404038538212717e+02 -1.063283689647318511e+02 -1.038066628163733895e+02 -1.003051680135552459e+02 -9.726493742906370699e+01 -9.439483277324129062e+01 -9.014571102569922800e+01 -8.757432688756338734e+01 -8.472630618487715992e+01 -8.235551456700956408e+01 -7.896772065194650736e+01 -7.682966914182892992e+01 -7.365209574025952577e+01 -7.070192091149266389e+01 -7.107345975479800870e+01 -6.870592465635048995e+01 -7.483029312921848941e+01 -6.701885636064508844e+01 -6.629682012447713646e+01 -7.375339603400394139e+01 -6.622654606181895076e+01 -6.522109417289529176e+01 -6.617803717332895985e+01 -6.637522332800909908e+01 -6.670428530902908903e+01 -6.628402544778748506e+01 -6.674624231273328689e+01 -6.741152249543229402e+01 -6.727498545968268218e+01 -6.752065549221511276e+01 -6.829345830869579004e+01 -6.841594930441738143e+01 -6.916442634139990275e+01 -6.979039764736896245e+01 -7.044456216610177535e+01 -7.092805134347091212e+01 -7.155897386612694788e+01 -7.199217584177252149e+01 -7.204726031994820801e+01 -7.229151549180677705e+01 -7.233693173810480914e+01 -7.270045690850022879e+01 -7.305826245456219681e+01
-2.532572112062725580e+02 -2.526143699458677929e+02 -2.503133877534209830e+02 -2.481501216210607197e+02 -2.451160663724026847e+02 -2.427569898969313726e+02 -2.407312202474232947e+02 -2.378601045467600557e+02 -2.351183393965654318e+02 -2.327290400276142464e+02 -2.305372571804454651e+02 -2.273602083309725685e+02 -2.248621849801310759e+02 -2.231929990894132061e+02 -2.197819200578354923e+02 -2.173026548059719403e+02 -2.148554714778570087e+02 -2.125427844524980401e+02 -2.094587119411382901e+02 -2.064904176084863536e+02 -2.043700332505058270e+02 -2.006186081257284854e+02 -1.973390160992706797e+02 -1.943181430268542726e+02 -1.917329413321106699e+02 -1.900868980479207835e+02 -1.866697912578620162e+02 -1.839181865030014933e+02 -1.808992631452424007e+02 -1.775606581785363574e+02 -1.762069699323854195e+02 -1.735566014506412671e+02 -1.701734444742088499e+02 -1.669396060235498283e+02 -1.658814786253189482e+02 -1.627137290478316345e+02 -1.596674803980617412e+02 -1.565223148864877203e+02 -1.555230745642901979e+02 -1.522612756763723212e+02 -1.486458191030835110e+02 -1.461549379944057421e+02 -1.446397746755201297e+02 -1.414358653991030792e+02 -1.383231598246912313e+02 -1.372029417899673831e+02 -1.340368779426698893e+02 -1.307640288242874931e+02 -1.282803858974746163e+02 -1.265069444268367818e+02 -1.231482308837933317e+02 -1.206505923462876808e+02 -1.179965347617777525e+02 -1.155657655934946320e+02 -1.128879880423379376e+02 -1.096168509362547070e+02 -1.082275992127581645e+02 -1.044558388652043561e+02 -1.002573472675070718e+02 -9.814920946682097735e+01 -9.530831763039667237e+01 -9.125657999222150352e+01 -8.779895671697499893e+01 -8.712133711106136502e+01 -8.412751418211260557e+01 -8.005291359780321159e+01 -7.805020329355794217e+01 -7.679423313155075448e+01 -8.129585441839986970e+01 -7.108941645189970870e+01 -6.891943068544334494e+01 -7.587663308404714257e+01 -6.647058552006907917e+01 -6.475742508197834013e+01 -6.515537553741879151e+01 -6.449776825291493765e+01 -6.398619500379789571e+01 -6.473128684918719955e+01 -6.392841446552352380e+01 -6.466176807640707125e+01 -6.460695940498072787e+01 -6.477851580934716935e+01 -6.478610112669292675e+01 -6.537105791955239908e+01 -6.568595564179102553e+01 -6.623771969691722461e+01 -6.616227320211174856e+01 -6.697881748805795610e+01 -6.737428449621705795e+01 -6.806466493921837468e+01 -6.844202620648806601e+01 -6.873955609455708782e+01 -6.944850676040452697e+01 -7.000385225864393135e+01 -7.008953589174240051e+01 -7.041253365464793035e+01 -7.102252783108545486e+01 -7.102012693559343859e+01 -7.094809310018624160e+01 -7.173470189539133912e+01
-2.368393471054773727e+02 -2.342764751076700236e+02 -2.332237755214544563e+02 -2.298777204396141087e+02 -2.273771404049452940e+02 -2.251421661743040090e+02 -2.233768258993108589e+02 -2.207367066071462887e+02 -2.175690405052135077e+02 -2.169295248579222744e+02 -2.136201736440348782e+02 -2.105909209258679482e+02 -2.080579069607766769e+02 -2.067516214200138336e+02 -2.037859417814372023e+02 -2.009650651857598405e+02 -1.984022651970447555e+02 -1.972565761643322162e+02 -1.938924221263283414e+02 -1.911343923622836201e+02 -1.886255052385625675e+02 -1.871272760215329356e+02 -1.842429075028410068e+02 -1.815468643851588411e+02 -1.807419959381559238e+02 -1.773069475375922366e+02 -1.745950583992463407e+02 -1.718933290428636269e+02 -1.706881490899985181e+02 -1.677925764313903585e+02 -1.648107168669511111e+02 -1.621259786427289100e+02 -1.609673340680724891e+02 -1.574213524241013999e+02 -1.549372699738376866e+02 -1.522917420013355922e+02 -1.510606419655331649e+02 -1.478193726081456703e+02 -1.450605673490801450e+02 -1.431124857805808688e+02 -1.408753795598535703e+02 -1.380153239817339568e+02 -1.353735384105949890e+02 -1.327273451722741981e+02 -1.299556555409137388e+02 -1.268371922067617987e+02 -1.238046465635314917e+02 -1.215983726572153785e+02 -1.184398048750672672e+02 -1.150454665616027654e+02 -1.144577033831423307e+02 -1.123387421069741947e+02 -1.082308420356969947e+02 -1.059115551268902209e+02 -1.032317228762271384e+02 -1.016297796572916496e+02 -9.798037055012798646e+01 -9.612104393583496176e+01 -9.316147195937328718e+01 -9.130904801723116293e+01 -9.632439289729785514e+01 -8.565988957140342563e+01 -8.282071346640181275e+01 -8.864489874965914851e+01 -7.768643529937243386e+01 -7.372191036081474635e+01 -7.219625250976616826e+01 -7.003424523400801149e+01 -6.682601403541264062e+01 -6.586972229755140518e+01 -6.547991589033284754e+01 -6.523284434363127104e+01 -6.386326173902366321e+01 -6.251659628585375827e+01 -6.321746513297117076e+01 -6.250044206070580799e+01 -6.233416126780909394e+01 -6.321566231714530204e+01 -6.262155075209241062e+01 -6.266997060179113532e+01 -6.340806990025565426e+01 -6.334954877974482201e+01 -6.366331151385897869e+01 -6.388897174600964490e+01 -6.426252275769253686e+01 -6.525483877650677300e+01 -6.549671852047976017e+01 -6.544133524412059444e+01 -6.634121657530103278e+01 -6.643570583674599561e+01 -6.747115173051507497e+01 -6.782693289172306095e+01 -6.827092549835296609e+01 -6.864916729718595434e+01 -6.891883049669715433e+01 -6.920540339185673417e+01 -6.949481780008073883e+01 -6.982162706579794076e+01 -7.016468233753799666e+01 -7.025469564190800043e+01
-2.300653130067811958e+02 -2.275565262849623878e+02 -2.245738691755393290e+02 -2.227183018991073595e+02 -2.208404886863010006e+02 -2.179392585340731898e+02 -2.154730898849538789e+02 -2.129905661218782598e+02 -2.114634002695894992e+02 -2.087256287825070729e+02 -2.062381705129062652e+02 -2.040899752419541642e+02 -2.019852845006473103e+02 -1.992914985949815900e+02 -1.970066874350750084e+02 -1.945506108447441136e+02 -1.927606282487879241e+02 -1.899604136727166406e+02 -1.875325678048233158e+02 -1.864486311176122513e+02 -1.832992304599160320e+02 -1.807665412358179537e+02 -1.783514862275973201e+02 -1.769093780711630757e+02 -1.740677225124947540e+02 -1.716066011687162245e+02 -1.688248129345970199e+02 -1.673738496038194512e+02 -1.649487841555386467e+02 -1.617209825321032781e+02 -1.590927826641819536e+02 -1.578084947698571625e+02 -1.540235519170961425e+02 -1.510762013766155292e+02 -1.483297723490262285e+02 -1.459444120330034877e+02 -1.432669296667407366e+02 -1.417125714920880739e+02 -1.388276893592026795e+02 -1.370037305720104257e+02 -1.332042404367294353e+02 -1.304076779905197725e+02 -1.302246325404595382e+02 -1.268983847110778385e+02 -1.237602330827827757e+02 -1.215195253576089129e+02 -1.184993827357788803e+02 -1.173904367158902460e+02 -1.150729575497909991e+02 -1.120653434730002971e+02 -1.090792705401631650e+02 -1.076267248350592922e+02 -1.056059243787774449e+02 -1.025427383326560715e+02 -9.915789568717232783e+01 -1.057885745297333671e+02 -9.481434935336930891e+01 -9.127774134964508335e+01 -9.603105591199749824e+01 -8.854997256220012503e+01 -8.424378732365356370e+01 -8.928539119187094286e+01 -7.858321797208192550e+01 -7.604788176937478283e+01 -7.358546923843601917e+01 -7.039351894106249574e+01 -6.741798430768079697e+01 -6.819626857965184286e+01 -6.496971635499467368e+01 -6.302028697600680829e+01 -6.267869310659190774e+01 -6.264603192421284916e+01 -6.152606456990889683e+01 -6.110417554682256025e+01 -6.087254937510006414e+01 -6.113248806813847835e+01 -6.087871240008552576e+01 -6.085010968273830656e+01 -6.185910599451585057e+01 -6.138162197712757262e+01 -6.135296120476618853e+01 -6.242961912405506553e+01 -6.264901524266113597e+01 -6.271342642057513217e+01 -6.297422915979245772e+01 -6.340846329083991151e+01 -6.389987912323268660e+01 -6.401554901694393607e+01 -6.441632168520760615e+01 -6.535795185008005603e+01 -6.597191782047974584e+01 -6.660543535715163443e+01 -6.692949341940123986e+01 -6.728414701569690237e+01 -6.791848450060294340e+01 -6.762295993113917802e+01 -6.814168138508189543e+01 -6.831809531104067901e+01 -6.839171755693038790e+01 -6.842362456062016918e+01
-2.218773231126352812e+02 -2.189805161149805883e+02 -2.194436478626356859e+02 -2.163161223260242423e+02 -2.128476133410730426e+02 -2.103165667318533565e+02 -2.085870765347348481e+02 -2.050396404116189331e+02 -2.042079087166626437e+02 -2.013733433963319612e+02 -1.994187264106192856e+02 -1.962924172707483876e+02 -1.951981355212185463e+02 -1.923234914775311495e+02 -1.897293365659135134e+02 -1.873224533959092355e+02 -1.841259747164309317e+02 -1.831693552957166276e+02 -1.809087011410614423e+02 -1.782075790915346829e+02 -1.751225601465552586e+02 -1.725628427153580731e+02 -1.715616586464203124e+02 -1.690768240400820446e+02 -1.661871901899502575e+02 -1.635062730320167645e+02 -1.629293945149009915e+02 -1.600265963391605339e+02 -1.572545761888363245e+02 -1.546324383629694239e+02 -1.534582968878028737e+02 -1.515143323409409390e+02 -1.480692638195851600e+02 -1.451459796807107523e+02 -1.433383188244030748e+02 -1.418520835099605506e+02 -1.390264225711378572e+02 -1.371966574039574596e+02 -1.337763005139687493e+02 -1.328615862232070128e+02 -1.307795890595058665e+02 -1.274112929364091826e+02 -1.248199769950732900e+02 -1.245633670731199913e+02 -1.214542229796994661e+02 -1.184101287275530865e+02 -1.156363260857597766e+02 -1.154930535871593520e+02 -1.113789343598541279e+02 -1.075524831202465634e+02 -1.127630699899077911e+02 -1.057431362687162562e+02 -1.019570614271820972e+02 -1.064712322780648037e+02 -9.625428893160275834e+01 -9.402097286003319709e+01 -8.975174273952066528e+01 -8.772652232548702500e+01 -8.414147902879648200e+01 -8.382819562679969749e+01 -8.114080005495748082e+01 -7.754040122242494704e+01 -7.541793847531758388e+01 -7.280963009818961496e+01 -7.102163077613667497e+01 -6.897584964108980898e+01 -6.590491937250766341e+01 -6.385056110732409707e+01 -6.346319599314125526e+01 -6.188254408769778081e+01 -6.025618404889571877e+01 -5.963869025769154320e+01 -6.023990096785281878e+01 -5.958105680376720414e+01 -5.980037017418613488e+01 -5.962648172516712464e+01 -5.920314970496023932e+01 -5.984667575776143167e+01 -6.002923737591421371e+01 -6.035642110783097536e+01 -6.056947298202702967e+01 -6.055913857163509562e+01 -6.087352846984131816e+01 -6.178897602541250933e+01 -6.189328309316422860e+01 -6.214873967986823544e+01 -6.246390846874541580e+01 -6.272871005415065326e+01 -6.380348951683373571e+01 -6.428822981840960438e+01 -6.463337080283326941e+01 -6.500825717715696328e+01 -6.543328227550009046e+01 -6.573067135256920324e+01 -6.630087190243963846e+01 -6.654672204999218366e+01 -6.667066894009927580e+01 -6.685493566514685426e+01 -6.678161450594822668e+01 -6.709002655021100736e+01
-2.109893158823861086e+02 -2.085073318815073833e+02 -2.055396444583609536e+02 -2.033623724055240132e+02 -2.028304385176990081e+02 -1.998287513980221206e+02 -1.972390378506360094e+02 -1.950160271357796660e+02 -1.943088275818204522e+02 -1.912907006842122257e+02 -1.888252555592314934e+02 -1.865812401413886334e+02 -1.844958260303732800e+02 -1.828626942481418496e+02 -1.802411294365371646e+02 -1.777301709222608395e+02 -1.764740425634438452e+02 -1.744572599858030628e+02 -1.716829175789752071e+02 -1.699094391761638008e+02 -1.674448755420235670e+02 -1.659562482640951373e+02 -1.634284508579672206e+02 -1.606068231952847043e+02 -1.584313876127184528e+02 -1.576801680025562860e+02 -1.548255109543412971e+02 -1.521275488937373268e+02 -1.503994598091884711e+02 -1.478856002675306058e+02 -1.461072371786611370e+02 -1.445737260095967258e+02 -1.412096939765428374e+02 -1.391823549370947148e+02 -1.379685114460261843e+02 -1.342563069023343587e+02 -1.312353314982819086e+02 -1.296083404170128119e+02 -1.273107501667740706e+02 -1.236693304177311461e+02 -1.205623460392857567e+02 -1.211612339066165305e+02 -1.187154222617679977e+02 -1.150025041222363882e+02 -1.200886363730061106e+02 -1.101968025673497067e+02 -1.092535114838102857e+02 -1.062292537873356935e+02 -1.114541828110078256e+02 -1.013484788457788852e+02 -9.816187434502882070e+01 -1.055436776890582848e+02 -9.501230704764077473e+01 -9.167178856485826088e+01 -9.006002288148255275e+01 -8.888707356952099303e+01 -8.466136830900751420e+01 -8.259167259268919281e+01 -7.881949977499536431e+01 -7.606465775103575311e+01 -7.480048394623366903e+01 -7.088048808651791433e+01 -6.984623701249550720e+01 -6.828863093633273706e+01 -6.590766559324833906e+01 -6.317849900710842093e+01 -6.125862339219582964e+01 -5.965299711275733330e+01 -6.103423934075978252e+01 -5.999606546420043429e+01 -5.850368647363377761e+01 -5.789665257230701911e+01 -5.845990194931886919e+01 -5.812980587981538605e+01 -5.787165912015594671e+01 -5.790579772387717128e+01 -5.888645585401025073e+01 -5.831935250339438426e+01 -5.826225928750430683e+01 -5.906470761773901756e+01 -5.924651954103252649e+01 -5.955067279192150664e+01 -5.952490175538660111e+01 -6.009548579159277892e+01 -6.067564808541023069e+01 -6.093886602633222083e+01 -6.137694183886740262e+01 -6.206664463595912196e+01 -6.250653477503057331e+01 -6.317570912549003737e+01 -6.363329113748275745e+01 -6.396079419355701390e+01 -6.446611367630961809e+01 -6.498678627522397733e+01 -6.479937652456534636e+01 -6.506336050724158326e+01 -6.543688107259075082e+01 -6.537965393913714252e+01 -6.568798120099566518e+01 -6.596528534079619988e+01
-2.079596946198358864e+02 -2.053360117737759083e+02 -2.030428838774806763e+02 -2.011019283319912745e+02 -1.997339738817997272e+02 -1.971438481385748958e+02 -1.948518112187658744e+02 -1.925679582422784790e+02 -1.918688428154180201e+02 -1.887876209665960516e+02 -1.862768980637262644e+02 -1.842207391699806749e+02 -1.819237426711000296e+02 -1.798397483107088703e+02 -1.771084780967644292e+02 -1.741821158742192210e+02 -1.716160662109299153e+02 -1.699397146105426373e+02 -1.669212364775307265e+02 -1.659255735670716945e+02 -1.641415662098117423e+02 -1.616241197213497856e+02 -1.584308479041028193e+02 -1.556505045669286744e+02 -1.528910367795260470e+02 -1.525768051289258835e+02 -1.503696137393025651e+02 -1.475889374439105950e+02 -1.446497856850652965e+02 -1.425244397902627327e+02 -1.427973026843447997e+02 -1.392647005049880704e+02 -1.364114110135346323e+02 -1.351290171198883741e+02 -1.343608664212322878e+02 -1.309485395572130528e+02 -1.278897953747170675e+02 -1.262136427076019345e+02 -1.238456810242099664e+02 -1.225404423490868737e+02 -1.277900302142338091e+02 -1.178170200217860497e+02 -1.152497289162266156e+02 -1.222106743061262932e+02 -1.196482982261662897e+02 -1.089738982717631757e+02 -1.060456191466900862e+02 -1.046797462837124471e+02 -1.024224400189738162e+02 -9.860144398994188464e+01 -9.677498393982327229e+01 -9.351678120512278269e+01 -9.115865599058038526e+01 -8.899000696730652749e+01 -8.535511999483199475e+01 -8.415081299802795911e+01 -8.340344582393593953e+01 -7.956170352270125079e+01 -7.608724954774291405e+01 -7.439413383507161370e+01 -7.147755657717229383e+01 -7.043348833885968929e+01 -6.742230351468788285e+01 -6.506646998308087859e+01 -6.278636044898240698e+01 -6.176135491249746678e+01 -6.077185508026960292e+01 -5.874577750569405765e+01 -5.822606727506348534e+01 -5.768215212601428021e+01 -5.760812630782960042e+01 -5.714327482826584514e+01 -5.680297002890053903e+01 -5.655148585760419877e+01 -5.726214286475511983e+01 -5.656729136114307721e+01 -5.725342505323353492e+01 -5.790712974571151506e+01 -5.760185000227906471e+01 -5.755205570460756093e+01 -5.839569899523353058e+01 -5.854308102551460280e+01 -5.896663785984539174e+01 -5.918939276594559118e+01 -5.916641372928799569e+01 -5.963604248963962107e+01 -6.044959417077946995e+01 -6.044035562693061081e+01 -6.111136007664283909e+01 -6.171657221109984448e+01 -6.217655943409951647e+01 -6.278133480719125714e+01 -6.320713066744008302e+01 -6.351045602286641412e+01 -6.378156129945334385e+01 -6.444469378730184417e+01 -6.454181002665968947e+01 -6.403460024520485661e+01 -6.436831804008875224e+01 -6.491093970780752898e+01
-2.038930277009733629e+02 -2.011914345227059471e+02 -1.982057774133470502e+02 -1.955628807436711156e+02 -1.936908591420286143e+02 -1.928695112675985683e+02 -1.899509354712275808e+02 -1.875915855866445838e+02 -1.851535166389500091e+02 -1.848030439130234868e+02 -1.821595242346912471e+02 -1.793003147638054884e+02 -1.769770633847451222e+02 -1.755702174197415957e+02 -1.743185785056795964e+02 -1.711759528144716000e+02 -1.692385463404795303e+02 -1.665075958577819790e+02 -1.658996282720771660e+02 -1.632460001187018577e+02 -1.605904946844471226e+02 -1.583945361670437251e+02 -1.589924138763811925e+02 -1.554196788144913057e+02 -1.524722200718070440e+02 -1.503866636548548286e+02 -1.492579278958756390e+02 -1.472685902658851660e+02 -1.442741801596701521e+02 -1.429144494888303711e+02 -1.402391681131216785e+02 -1.391069324181520983e+02 -1.359233045832129108e+02 -1.344483655876054797e+02 -1.319457874148856149e+02 -1.294176062529807041e+02 -1.356953568051961838e+02 -1.252205790627198638e+02 -1.223035790553366127e+02 -1.273801533330800737e+02 -1.257038409464891515e+02 -1.147294535219152749e+02 -1.132212518369692873e+02 -1.110849739914294503e+02 -1.095013657711880057e+02 -1.056135449536320152e+02 -1.032877279389020657e+02 -1.004627714571584960e+02 -9.724736488895555908e+01 -9.799602744325359538e+01 -9.411598012576016004e+01 -9.117960356519623133e+01 -8.983871694647045558e+01 -8.872696890887138466e+01 -8.534985555632387388e+01 -8.341798444969109028e+01 -8.045829309241534588e+01 -7.738089927615541797e+01 -7.639224185629301189e+01 -7.329185909416852951e+01 -7.008147232082576750e+01 -6.732637406788950329e+01 -6.510669126109773686e+01 -6.316603033103459808e+01 -6.108465165519278628e+01 -6.098146007964704296e+01 -5.935068856001880988e+01 -5.904059167233950234e+01 -5.750399231719153192e+01 -5.613927402803923883e+01 -5.536531226555987928e+01 -5.667493008783075936e+01 -5.568666691823927550e+01 -5.521242399895658082e+01 -5.580127557305525698e+01 -5.630722019617419960e+01 -5.571819391503886720e+01 -5.630694605153566812e+01 -5.661792293630954021e+01 -5.667085259075473402e+01 -5.720768619089118090e+01 -5.717674654150114577e+01 -5.759251860301624504e+01 -5.792007006365805211e+01 -5.808427771142422102e+01 -5.839587949646201537e+01 -5.903004230656206630e+01 -5.938856040791665691e+01 -6.024206415859865871e+01 -6.053398654879855201e+01 -6.124899227145684222e+01 -6.164949180949829355e+01 -6.220355507931684258e+01 -6.238012778117105483e+01 -6.285003666255132515e+01 -6.320654202393497911e+01 -6.279958908514266369e+01 -6.314812869537857409e+01 -6.370095634907002591e+01 -6.419746568846517221e+01
-2.017125385525529850e+02 -1.997871992017810499e+02 -1.985855752791594000e+02 -1.956299389610982189e+02 -1.940160215663113377e+02 -1.911721672518792730e+02 -1.906482774584334550e+02 -1.882817996527380728e+02 -1.852051562310750796e+02 -1.831511349385173730e+02 -1.815634289512876762e+02 -1.796607007279525590e+02 -1.777026333206349022e+02 -1.752881288849653743e+02 -1.732176558364460561e+02 -1.716870622146265646e+02 -1.697798077067970439e+02 -1.669653040693366961e+02 -1.644278881546426305e+02 -1.647562715112571823e+02 -1.606403165413446459e+02 -1.577294555209441853e+02 -1.560395815476699966e+02 -1.529670723629510007e+02 -1.505659563460750121e+02 -1.486234401155778073e+02 -1.478064451826874688e+02 -1.447226355642648628e+02 -1.425634173431325848e+02 -1.404611287042800711e+02 -1.373994072700013476e+02 -1.340582398260464743e+02 -1.335013091324592551e+02 -1.399797167031634899e+02 -1.290223399985184756e+02 -1.262613053601023836e+02 -1.317091475298927890e+02 -1.241370995388350451e+02 -1.202981058504135774e+02 -1.257571866841929875e+02 -1.159808046553752092e+02 -1.134021389960657729e+02 -1.117381908247542981e+02 -1.096894578176889752e+02 -1.064430111370049872e+02 -1.047368354776558306e+02 -1.041999188967202770e+02 -1.006708153688595075e+02 -9.856381508634876809e+01 -9.620911083833729549e+01 -9.351100327633966458e+01 -9.162212001920732973e+01 -8.885994388735103655e+01 -8.570323705141927917e+01 -8.325977233959062573e+01 -8.149695113712601824e+01 -7.803286075209564387e+01 -7.466660269299683250e+01 -7.237486741860986683e+01 -7.192815416802577033e+01 -6.931359969073277227e+01 -6.643764068854463289e+01 -6.388673909538382389e+01 -6.133822684521614121e+01 -6.161757965446020080e+01 -5.935387484255073787e+01 -5.692742517660569490e+01 -5.617779946585142170e+01 -5.481635377361128292e+01 -5.548756299476479370e+01 -5.489085076944484598e+01 -5.436637669418659158e+01 -5.400318677176130677e+01 -5.476777245964255059e+01 -5.424052853083450998e+01 -5.455477898242271806e+01 -5.504596355787019490e+01 -5.487227621505510911e+01 -5.474532250588600846e+01 -5.562867988122839336e+01 -5.547338284533223174e+01 -5.637905044378025821e+01 -5.691906532088193416e+01 -5.658063921723015710e+01 -5.700195324606652747e+01 -5.788838076666520749e+01 -5.800978423941056406e+01 -5.820797530135106967e+01 -5.878002681258547568e+01 -5.972253152030892664e+01 -6.036045440021945296e+01 -6.028785648951885889e+01 -6.108635123940326395e+01 -6.157653943906890959e+01 -6.215830258680735199e+01 -6.191739169094070405e+01 -6.222671519942824148e+01 -6.219012634397670780e+01 -6.262808830719648512e+01 -6.289557392501340871e+01
-1.997111495358438447e+02 -1.976911847005230811e+02 -1.943710937755935220e+02 -1.920455386419363890e+02 -1.924115696388789729e+02 -1.891607787381226160e+02 -1.865395465693528365e+02 -1.845266550452516299e+02 -1.843172344329598786e+02 -1.811677486724586004e+02 -1.788500809282805335e+02 -1.764847868726982938e+02 -1.744570699291003848e+02 -1.740843085755621473e+02 -1.707970364820661189e+02 -1.678173541673117484e+02 -1.668872358411164214e+02 -1.657328979987187836e+02 -1.626871646436316610e+02 -1.610651403477745589e+02 -1.581313310243135959e+02 -1.577087909434355026e+02 -1.558074025745227118e+02 -1.528929716160034218e+02 -1.500088346498414751e+02 -1.473720598444754160e+02 -1.480162893414398013e+02 -1.447106774821111799e+02 -1.414839465913913727e+02 -1.476392830125543583e+02 -1.396320175107438786e+02 -1.364574636688777218e+02 -1.338802299265212525e+02 -1.395534825463017228e+02 -1.299297969975553428e+02 -1.277878258622426415e+02 -1.333114360370856843e+02 -1.231991477009825644e+02 -1.202834895970010365e+02 -1.192024578116018461e+02 -1.167844327642397531e+02 -1.133540670442037595e+02 -1.112082651394651833e+02 -1.083990684944248386e+02 -1.056124554662543460e+02 -1.032398477895087581e+02 -9.972064593407213806e+01 -9.937682550568064244e+01 -9.717298223851604178e+01 -9.423112081977163257e+01 -9.121313111082416469e+01 -8.804216500309135540e+01 -8.629268817892076981e+01 -8.565036103733901029e+01 -8.240344444250628442e+01 -8.016084891803228629e+01 -7.764287642832650249e+01 -7.695183657022026580e+01 -7.422381043786697319e+01 -7.145952082664202010e+01 -6.877219316609782140e+01 -6.716956103905968689e+01 -6.555115908933784397e+01 -6.268221859386726180e+01 -6.052960670598801585e+01 -5.834565343510139712e+01 -5.675095974033823865e+01 -5.639983905641992123e+01 -5.483567688369697635e+01 -5.396938431254537250e+01 -5.356032353120814093e+01 -5.379441068745968835e+01 -5.340441240825872882e+01 -5.353957898285802486e+01 -5.405758176232438927e+01 -5.324383979414398738e+01 -5.359667314871987287e+01 -5.409559700361153034e+01 -5.445524545679852224e+01 -5.498002814040543740e+01 -5.474201491374761019e+01 -5.493646084964517229e+01 -5.581598337484915362e+01 -5.582724516767068224e+01 -5.640651722249284461e+01 -5.643911697712718478e+01 -5.676149302447930012e+01 -5.759949945077676858e+01 -5.767567083429738517e+01 -5.872873530309149714e+01 -5.919369316126703495e+01 -5.944859195528640328e+01 -6.031552672497868173e+01 -6.041786264340619539e+01 -6.055723286735125299e+01 -6.079898073980602646e+01 -6.114659021229324765e+01 -6.142484045285941363e+01 -6.173003419795220026e+01 -6.195891933311956024e+01
-2.009206930201912371e+02 -1.992150487701283055e+02 -1.984081241095358052e+02 -1.952162276012460609e+02 -1.929761994161352163e+02 -1.907575440026787703e+02 -1.899844237834573448e+02 -1.877591884689089454e+02 -1.848666602692995298e+02 -1.826046682651656852e+02 -1.808055021471344048e+02 -1.795365566634799279e+02 -1.766951541683050948e+02 -1.745014002683541889e+02 -1.731651921717070195e+02 -1.714116798454081732e+02 -1.687143576752657168e+02 -1.670975019534356534e+02 -1.643918144841147182e+02 -1.622084761123145711e+02 -1.618084399110978779e+02 -1.587520778456078858e+02 -1.560584038512016036e+02 -1.540566068537532374e+02 -1.533649547789294161e+02 -1.500946419282793727e+02 -1.468841326234236249e+02 -1.527989821606319651e+02 -1.431985375271719647e+02 -1.399190899570720887e+02 -1.443837144992679100e+02 -1.341041811184726384e+02 -1.338059942373960212e+02 -1.307576266959850386e+02 -1.285774735259686850e+02 -1.256479108586579514e+02 -1.224389489984494332e+02 -1.234105633977266905e+02 -1.196830225947198585e+02 -1.164909515186257920e+02 -1.148005768512819174e+02 -1.125521390921162492e+02 -1.110172960712904171e+02 -1.089740468278724563e+02 -1.052466047191322218e+02 -1.029014815989059741e+02 -1.034592965800790410e+02 -9.947557977830106779e+01 -9.674351238773810735e+01 -9.467858948073300951e+01 -9.244214476072090747e+01 -9.065211363022135060e+01 -8.807746465535420555e+01 -8.499286863763752820e+01 -8.219801487105895887e+01 -8.047658846243865582e+01 -7.722986676878858248e+01 -7.601927179113918953e+01 -7.334170797356129867e+01 -7.073519441236568639e+01 -6.836617164010124270e+01 -6.556598328212167814e+01 -6.253073395661016320e+01 -5.998856942793226210e+01 -6.059533908918943723e+01 -5.796754234173108955e+01 -5.542532098556816322e+01 -5.426104979721358035e+01 -5.309549934938449667e+01 -5.416917902468823343e+01 -5.325230901060789535e+01 -5.236468349019803270e+01 -5.225064936608474397e+01 -5.299364471219305983e+01 -5.230118900717098995e+01 -5.246990438227864217e+01 -5.330642444783089928e+01 -5.261933113471938839e+01 -5.283404947416639885e+01 -5.382631843568111663e+01 -5.370596395821153379e+01 -5.464461936842324974e+01 -5.497624760925452136e+01 -5.441923256807604048e+01 -5.542576785056097322e+01 -5.586970076072110203e+01 -5.651179528025685528e+01 -5.643284579462218886e+01 -5.656865565747347091e+01 -5.780808922925395876e+01 -5.827332934086607708e+01 -5.832420386204940144e+01 -5.911347785604449001e+01 -5.972030253267607947e+01 -5.976112164186241671e+01 -6.023096737808537426e+01 -6.058852151116726503e+01 -6.032025106421405525e+01 -6.062291570149444908e+01 -6.098086830794402147e+01
-2.000069966492503113e+02 -1.998562376816833535e+02 -1.968014366348039061e+02 -1.943160349515397911e+02 -1.917033539747620523e+02 -1.920232789596804537e+02 -1.891142345070265662e+02 -1.861950487749164438e+02 -1.837865490339661108e+02 -1.845841338160698513e+02 -1.809675342233657034e+02 -1.781643996956721310e+02 -1.768003588923785401e+02 -1.730693372245268051e+02 -1.730597572163080713e+02 -1.712001208685140057e+02 -1.676096019990100672e+02 -1.650195003420509181e+02 -1.663861360438714314e+02 -1.627404275276297767e+02 -1.593524167126193163e+02 -1.569016808045970492e+02 -1.560809915271109958e+02 -1.545104094652344315e+02 -1.513025841072145568e+02 -1.572899256476863741e+02 -1.477924107148508597e+02 -1.464937906327781434e+02 -1.513523273955079844e+02 -1.408752341119775338e+02 -1.384627906505704118e+02 -1.458579603650139802e+02 -1.352850893696253536e+02 -1.316627033424046829e+02 -1.291091594616439409e+02 -1.279498761673812481e+02 -1.260714685380987703e+02 -1.240692479756194189e+02 -1.213673465953490762e+02 -1.189680502118580421e+02 -1.184347424707324308e+02 -1.149865334149939144e+02 -1.113578663952221177e+02 -1.090900685156892109e+02 -1.058965293114934241e+02 -1.035569092983250243e+02 -1.001604232952731053e+02 -9.986760658975065041e+01 -9.715714745157660559e+01 -9.471294743346324196e+01 -9.162685751499427056e+01 -8.882376382536031656e+01 -8.659950644424451127e+01 -8.632538455403410182e+01 -8.308282770293880048e+01 -8.039171586956325655e+01 -7.780827785878376801e+01 -7.489742504625854735e+01 -7.453102556325745809e+01 -7.173086926437723321e+01 -6.883459213410529287e+01 -6.629172473722522341e+01 -6.436002612969897996e+01 -6.276073421345637371e+01 -5.994065914813450036e+01 -5.792978414277114751e+01 -5.617283969328870796e+01 -5.506192082569801016e+01 -5.348373062834936320e+01 -5.236320955000640254e+01 -5.190357391371586004e+01 -5.227226301396927255e+01 -5.148105953987771244e+01 -5.134984464422578299e+01 -5.128456245964966342e+01 -5.192586258252900677e+01 -5.155882272366850572e+01 -5.171882245011053669e+01 -5.253222375451186821e+01 -5.272558063432601472e+01 -5.255852263475848929e+01 -5.299219556406687559e+01 -5.342078246768348038e+01 -5.363432980215608126e+01 -5.423091034755540818e+01 -5.432173971075292229e+01 -5.512701419771057232e+01 -5.543334701887083327e+01 -5.564876369857230287e+01 -5.655579312277315296e+01 -5.713330859123740879e+01 -5.766909173162073898e+01 -5.868206931347229016e+01 -5.855810316575600183e+01 -5.880906619697228166e+01 -5.964097629536783529e+01 -5.973324205072610482e+01 -5.972462528391086067e+01 -5.985445917329018073e+01 -6.027777695730699037e+01
-2.064965574764550524e+02 -2.036013741180793772e+02 -2.014370993686527527e+02 -1.986871517540109267e+02 -1.983760574544330098e+02 -1.956989897647003431e+02 -1.929760567569740033e+02 -1.904737305068007061e+02 -1.888339781243089703e+02 -1.874240352391436772e+02 -1.855373263224617517e+02 -1.827604295350051586e+02 -1.805699005716456327e+02 -1.805408439043631574e+02 -1.773691783628488281e+02 -1.740796837977684675e+02 -1.722212941485416309e+02 -1.719386528553166045e+02 -1.689869381283688767e+02 -1.657213810070451814e+02 -1.644782028203069615e+02 -1.621737842062427717e+02 -1.600683397855459020e+02 -1.656726561103831727e+02 -1.557470705608144215e+02 -1.535984255211130858e+02 -1.516402722722448289e+02 -1.568822486965628116e+02 -1.459629231211069111e+02 -1.432010512962481528e+02 -1.416256850521535000e+02 -1.380480898521237236e+02 -1.345322572518866764e+02 -1.327991320791402643e+02 -1.323336446121167000e+02 -1.289809051268088069e+02 -1.265052110152696656e+02 -1.229523309408562710e+02 -1.213998103044020240e+02 -1.209413893237242803e+02 -1.169023790825646927e+02 -1.139944899538572542e+02 -1.118028277111484670e+02 -1.114886870752044530e+02 -1.082584222230306921e+02 -1.055881693070750913e+02 -1.028788839026480844e+02 -1.008838577131965337e+02 -9.963323467227019137e+01 -9.659102091204739793e+01 -9.446727917112113460e+01 -9.221596509769162253e+01 -9.064105690269940396e+01 -8.785364401538578250e+01 -8.482541413821064680e+01 -8.136523714545273833e+01 -8.005352419760532712e+01 -7.651199441969836812e+01 -7.315329329977771522e+01 -7.026110093316378880e+01 -6.989197692236575676e+01 -6.785440442538903483e+01 -6.423738212569445238e+01 -6.146918093886365142e+01 -5.903396985194360269e+01 -5.914398175500645038e+01 -5.643068931278354228e+01 -5.393420211499671524e+01 -5.279390321253447382e+01 -5.220442511996095902e+01 -5.235169586606522785e+01 -5.167893934721165294e+01 -5.109383440282850586e+01 -5.078202914149966318e+01 -5.120763997456017336e+01 -5.089911244383834799e+01 -5.141934554289954917e+01 -5.195855180927745209e+01 -5.213793960935963412e+01 -5.212206010635078712e+01 -5.223034326224131263e+01 -5.277105457032366331e+01 -5.312459930466158653e+01 -5.276886488182464063e+01 -5.360937254664273866e+01 -5.400832570999006066e+01 -5.431449671617626507e+01 -5.508745489118814476e+01 -5.540189892575658348e+01 -5.616730475987118609e+01 -5.668209914418774531e+01 -5.679437069266397486e+01 -5.770176962595179759e+01 -5.818560282476829570e+01 -5.855395381457555715e+01 -5.922754935118304331e+01 -5.979121512659533977e+01 -5.936546366733379898e+01 -5.937073059709762646e+01 -6.017440358842721082e+01
-2.083174113949201001e+02 -2.054978626537688342e+02 -2.027392881615069768e+02 -1.997375663427086749e+02 -2.006657162474726306e+02 -1.971294215077411422e+02 -1.940356608833308201e+02 -1.920919962862202510e+02 -1.920222214712518394e+02 -1.886236462908167368e+02 -1.867429077230275141e+02 -1.834298774249828625e+02 -1.813472292635545386e+02 -1.812771678902961980e+02 -1.779114517225978602e+02 -1.749379402319117105e+02 -1.739848675883955025e+02 -1.729311434216228918e+02 -1.690297508031514724e+02 -1.748834765065151373e+02 -1.644276193668905535e+02 -1.638038521098588092e+02 -1.690710447365783295e+02 -1.585399957646224038e+02 -1.557555593080397784e+02 -1.636797509147175163e+02 -1.604255675371841789e+02 -1.495587232325183322e+02 -1.467221173485583563e+02 -1.454842882188425790e+02 -1.432789416857564788e+02 -1.401827899358641218e+02 -1.382733981215853589e+02 -1.358865709456729576e+02 -1.353134765886131277e+02 -1.319360887140480258e+02 -1.287046348594635390e+02 -1.279271114636637776e+02 -1.255728953211105079e+02 -1.223987732778207231e+02 -1.207051807405078421e+02 -1.180148723430813504e+02 -1.164147916489061885e+02 -1.141684008324064621e+02 -1.102726115287902928e+02 -1.068879809703488775e+02 -1.058401988265379146e+02 -1.021874963105975098e+02 -9.881354833879643706e+01 -9.564110899126497145e+01 -9.550248892609056384e+01 -9.348190639742826136e+01 -8.985575291472676440e+01 -8.660322188341388028e+01 -8.407815192770313217e+01 -8.424209962781181105e+01 -8.097676046141222628e+01 -7.769698436926732654e+01 -7.506031181334216740e+01 -7.335640623936670579e+01 -7.142604946406724764e+01 -6.882641400738741311e+01 -6.609674742817037441e+01 -6.421463136417766293e+01 -6.264506971445671724e+01 -5.934792585505710605e+01 -5.712783093318064687e+01 -5.523424515921838918e+01 -5.426914792561265699e+01 -5.244664866569124229e+01 -5.095831749573702041e+01 -5.060156092083026635e+01 -5.122884396211202329e+01 -4.986473556755308323e+01 -5.007420269856948636e+01 -4.997218280019050951e+01 -5.059171036848744762e+01 -5.006373236635570834e+01 -5.045071558220614349e+01 -5.122638433190711282e+01 -5.137429683399555813e+01 -5.187759472172075448e+01 -5.180670280221542612e+01 -5.226891660793407368e+01 -5.277737192814799272e+01 -5.293645591931068850e+01 -5.290080927275187150e+01 -5.405869507476610636e+01 -5.449503391931551732e+01 -5.501700590439305216e+01 -5.548421608676334671e+01 -5.591471227411477685e+01 -5.712209574046043059e+01 -5.753901932224634663e+01 -5.748913945230996347e+01 -5.807324418498122043e+01 -5.894929516968853989e+01 -5.901082289298810934e+01 -5.891573614703380457e+01 -5.976872516758839993e+01
-1.777934352201934018e+02 -1.749187426089048927e+02 -1.818552122170102621e+02 -1.716899579047026805e+02 -1.699915050614014831e+02 -1.686309147121449712e+02 -1.745771287572738402e+02 -1.644763996925400420e+02 -1.614050618232976717e+02 -1.588906696034520110e+02 -1.656447239747764968e+02 -1.549823036596235966e+02 -1.548646142288337160e+02 -1.599686810452400891e+02 -1.501808863810404091e+02 -1.483219391380124819e+02 -1.446845260825087394e+02 -1.431495757394480393e+02 -1.402027592354816079e+02 -1.397401279593098025e+02 -1.392960788877934419e+02 -1.359406747720095723e+02 -1.328337514817717988e+02 -1.317394991545008907e+02 -1.287060013912945919e+02 -1.286014640444487043e+02 -1.255912549595383183e+02 -1.240261329464186986e+02 -1.211951863711505553e+02 -1.184078056855425132e+02 -1.189950078351328386e+02 -1.163300753666272271e+02 -1.134776955778181247e+02 -1.114165471725761449e+02 -1.092089742646258230e+02 -1.091877966401830093e+02 -1.062678444124723285e+02 -1.042906350639918998e+02 -1.018333620134693547e+02 -9.932248473287887691e+01 -9.996737376276141163e+01 -9.700270401338681836e+01 -9.423407689577013002e+01 -9.214836075602119081e+01 -9.076832324027481036e+01 -8.981819350542245672e+01 -8.740697567864675932e+01 -8.453351062345974753e+01 -8.191127623819255632e+01 -7.997362504863852450e+01 -7.830846845308903426e+01 -7.507366637899656325e+01 -7.226631952391315394e+01 -6.988473022830208947e+01 -6.730610166600452260e+01 -6.842470848106621872e+01 -6.544786763665551632e+01 -6.232813653374493157e+01 -6.002278996424682589e+01 -5.773047502040100909e+01 -5.628066734659381609e+01 -5.590748198544092418e+01 -5.357149596619968435e+01 -5.157922659171130420e+01 -5.063252590326693792e+01 -5.014672099650612580e+01 -5.055878419557058123e+01 -4.993691055568086767e+01 -4.902192110895512656e+01 -4.889651268787234528e+01 -4.970457958477159366e+01 -4.883476202261432064e+01 -4.884371052008602021e+01 -4.933593047991953995e+01 -4.972307895356181717e+01 -4.966206238931334838e+01 -4.969441264570517802e+01 -5.047803055661195515e+01 -5.062214846830043058e+01 -5.086999120873279168e+01 -5.151747828190663370e+01 -5.142650904134987400e+01 -5.153095368689821498e+01 -5.228985882777249827e+01 -5.268601194628705997e+01 -5.296295370420213544e+01 -5.347044087902735043e+01 -5.375045251984381878e+01 -5.429294883857105702e+01 -5.464258448856978134e+01 -5.540919185015582826e+01 -5.588195975008579808e+01 -5.662495689989502523e+01 -5.646341865787201186e+01 -5.678472639699921842e+01 -5.718686230939660931e+01 -5.777461753683842716e+01 -5.818710095358287049e+01 -5.825474144039268509e+01 -5.789197977901147851e+01
-1.807180783075236263e+02 -1.790037818569510364e+02 -1.765931525925971926e+02 -1.750850970692638100e+02 -1.725398169394901799e+02 -1.706208029456076929e+02 -1.784171122469350053e+02 -1.680907195327318391e+02 -1.655662912127073696e+02 -1.626400424423202367e+02 -1.696622655715322026e+02 -1.607815707851309810e+02 -1.577315725953514516e+02 -1.640549148152097700e+02 -1.537043092499909562e+02 -1.531330245854602197e+02 -1.504177719319765174e+02 -1.486418401410222998e+02 -1.456717935558730233e+02 -1.439947738091850908e+02 -1.441264281800930291e+02 -1.406394354839789571e+02 -1.378711852103395472e+02 -1.369208802547260007e+02 -1.343724982464290747e+02 -1.331513454655350017e+02 -1.318773918125181126e+02 -1.286233642286664463e+02 -1.257704562415475493e+02 -1.242813702852150897e+02 -1.234746327931091230e+02 -1.203807219813938190e+02 -1.179441648221489061e+02 -1.154828325237064206e+02 -1.128535894238916910e+02 -1.110023824327183064e+02 -1.084782190918106721e+02 -1.054506259824371739e+02 -1.029517150446862672e+02 -1.031633328631339879e+02 -1.009958838799250316e+02 -9.772686846366757152e+01 -9.516544422609689491e+01 -9.319761566611585124e+01 -9.146221114727555346e+01 -9.062928810629378518e+01 -8.819480279458727523e+01 -8.517200980083153183e+01 -8.311918964501322193e+01 -8.149646922617864675e+01 -8.068770857088551907e+01 -7.798346290188743524e+01 -7.500524638232423058e+01 -7.310659796487566098e+01 -7.156622195189542879e+01 -7.010123859742574837e+01 -6.756420359544392795e+01 -6.520199525420434838e+01 -6.207778551223464802e+01 -5.980385077876650968e+01 -5.788239076131172567e+01 -5.510618670115870543e+01 -5.298173086769375573e+01 -5.120315703040861166e+01 -5.191768210805422257e+01 -5.150737363133766422e+01 -4.964775352954693943e+01 -4.863095788267131070e+01 -4.868932889251873064e+01 -4.906434612042527732e+01 -4.807407043427819104e+01 -4.830904800751385153e+01 -4.811798110582698484e+01 -4.860664142770148999e+01 -4.847230994546966798e+01 -4.834180463520330306e+01 -4.881654403093830297e+01 -4.955223990637215792e+01 -4.959974406491318177e+01 -4.972343024953254798e+01 -4.997963386378771844e+01 -5.022961506600803006e+01 -5.047677047150535401e+01 -5.146095237263519095e+01 -5.155324413289646657e+01 -5.151780645105510814e+01 -5.254261474189611647e+01 -5.270771016671692166e+01 -5.287404985852599282e+01 -5.404857192234201335e+01 -5.446231512127388186e+01 -5.508777062915427791e+01 -5.579223784790863760e+01 -5.582538004748847982e+01 -5.635354147867843011e+01 -5.587698828428125353e+01 -5.669884250733031905e+01 -5.719984078537628136e+01 -5.724127512523224937e+01 -5.746419247162636168e+01
-1.873790957524332725e+02 -1.852355273536300047e+02 -1.824258737650811781e+02 -1.881597098997439730e+02 -1.775220037569518468e+02 -1.752579870666289139e+02 -1.745904065294659517e+02 -1.811305384743982927e+02 -1.703190780643760718e+02 -1.673177779119642423e+02 -1.729471879635992195e+02 -1.662353873210329880e+02 -1.627925451973598285e+02 -1.596624432906237985e+02 -1.575076315043578745e+02 -1.549072629139354831e+02 -1.552479513025275537e+02 -1.528853088561691322e+02 -1.498000214843716549e+02 -1.466978041726666220e+02 -1.463929168776213032e+02 -1.451073888750538572e+02 -1.416061124581789272e+02 -1.399780152441783230e+02 -1.366497147731138284e+02 -1.348354576337993365e+02 -1.352056014576197356e+02 -1.315053811023000208e+02 -1.287525636157999998e+02 -1.261946517830529757e+02 -1.267601859593900713e+02 -1.233415934342272635e+02 -1.207516696011208239e+02 -1.187922806641359443e+02 -1.168032124680237018e+02 -1.159425214514747182e+02 -1.135235624764634821e+02 -1.105083221463767984e+02 -1.080113292966023693e+02 -1.065713405864120773e+02 -1.055163173888869323e+02 -1.025665935352155316e+02 -1.003343483842158435e+02 -9.772224352554989935e+01 -9.636439730965523154e+01 -9.502685400791112613e+01 -9.187773721634391677e+01 -8.954902200765152998e+01 -8.709160779751314863e+01 -8.524269216911757496e+01 -8.197009723463827413e+01 -7.891725968361700438e+01 -7.615528667622970715e+01 -7.387433424120925451e+01 -7.410293697971044935e+01 -7.118122757952305335e+01 -6.839476450364304583e+01 -6.602359454842044784e+01 -6.333886105903962260e+01 -6.321357473629981172e+01 -6.052704529541587419e+01 -5.803365342901668811e+01 -5.536788771818481081e+01 -5.405326238223608470e+01 -5.302208048935665374e+01 -5.079834619161245257e+01 -4.947321390013198084e+01 -4.802753980527064215e+01 -4.761288947433453700e+01 -4.829270687166713572e+01 -4.739947358971185309e+01 -4.727753728967063296e+01 -4.814628236449838994e+01 -4.788213905016567651e+01 -4.726691050437963781e+01 -4.828822055066161312e+01 -4.824316736254425564e+01 -4.828876407804536086e+01 -4.870697266400507885e+01 -4.870395410892355414e+01 -4.884126594398727406e+01 -4.956574345682705740e+01 -5.015645093714297786e+01 -5.005053228926417574e+01 -5.076376853521975363e+01 -5.097110296273287133e+01 -5.108752198142890677e+01 -5.178008140497136935e+01 -5.222938509012043795e+01 -5.328027016136240235e+01 -5.357752181067517938e+01 -5.395667351330823180e+01 -5.497168255549903648e+01 -5.472991803108363484e+01 -5.571668925643183456e+01 -5.579409532335579058e+01 -5.615286976251726259e+01 -5.657868259745703909e+01 -5.672226002598378614e+01 -5.648020103038626871e+01
-1.982804613899892843e+02 -1.969120220560351413e+02 -1.936544750896248104e+02 -1.921459635489843265e+02 -1.894274098483054729e+02 -1.870746638199974825e+02 -1.858056173596530698e+02 -1.841647738730188735e+02 -1.815095363197347638e+02 -1.791995776161549827e+02 -1.868224646874316193e+02 -1.762866633439894315e+02 -1.733857309848911541e+02 -1.791107051014777483e+02 -1.711431386222332094e+02 -1.679045086742244735e+02 -1.731264043045726737e+02 -1.628843203443425409e+02 -1.602906698237514433e+02 -1.675800257931719557e+02 -1.569607237637346770e+02 -1.539242674839866538e+02 -1.531511123915494750e+02 -1.517018642893976619e+02 -1.479352303339915125e+02 -1.467282613837326153e+02 -1.429052805007904396e+02 -1.409229384579467705e+02 -1.408196854530337419e+02 -1.370214129818814683e+02 -1.343111321514410577e+02 -1.336003036610083825e+02 -1.313357942972230887e+02 -1.283712381124724971e+02 -1.261826378145458136e+02 -1.233657660613496887e+02 -1.212368911777355436e+02 -1.183014429121113693e+02 -1.150288422523847203e+02 -1.142078865568450965e+02 -1.119722882884105815e+02 -1.098801634078219109e+02 -1.060359477737305127e+02 -1.034012616653421617e+02 -1.007197118080050871e+02 -1.011221549233944188e+02 -9.804005099159797965e+01 -9.515234948663166392e+01 -9.254716174153674046e+01 -9.046263909639371548e+01 -8.978767260587454757e+01 -8.675570826945141789e+01 -8.359340411700600271e+01 -8.097658920422973949e+01 -7.893677567568329323e+01 -7.795730568227692459e+01 -7.509358812722754806e+01 -7.245716252271786573e+01 -7.104574116599499689e+01 -6.951834423304097754e+01 -6.621553905164896037e+01 -6.404070749419938124e+01 -6.046274495140115590e+01 -5.820883529239078769e+01 -5.572586697024513569e+01 -5.311781483812521287e+01 -5.044703599435582930e+01 -4.851273645098815024e+01 -5.052428764977894105e+01 -4.865295222607936410e+01 -4.713420305303968405e+01 -4.715830038570275207e+01 -4.734541833249208764e+01 -4.644534737099444044e+01 -4.685650949575823176e+01 -4.711647400942092645e+01 -4.759393955018974509e+01 -4.752830856875853272e+01 -4.730023564658957014e+01 -4.799792488935226942e+01 -4.848613830755343201e+01 -4.833978805133618550e+01 -4.878406148225088401e+01 -4.894912223725748390e+01 -4.941337697968853604e+01 -4.987479917070712787e+01 -4.998033953316564748e+01 -5.083684370012764475e+01 -5.089222627118540743e+01 -5.160972870594046924e+01 -5.262902070913666819e+01 -5.315881919333217098e+01 -5.354634509977341850e+01 -5.474179957305539546e+01 -5.479279761949170791e+01 -5.543957567727461822e+01 -5.525397615779732519e+01 -5.572477774039597875e+01 -5.558563479988899303e+01 -5.634752605482410814e+01
-1.760875141354968036e+02 -1.655603786405154949e+02 -1.627711560412346898e+02 -1.639262802057684780e+02 -1.619288953827873456e+02 -1.591849869006766198e+02 -1.556756124141947737e+02 -1.548775804772703850e+02 -1.532833298489503875e+02 -1.520711210715781192e+02 -1.506982642080242556e+02 -1.477674505243154783e+02 -1.448213975394713771e+02 -1.433993264690017213e+02 -1.439227104775440580e+02 -1.407525577446970715e+02 -1.378819301657061658e+02 -1.356638574695217017e+02 -1.348559114907710068e+02 -1.339270686168171665e+02 -1.313627491799140330e+02 -1.292980490857661380e+02 -1.267475948694192027e+02 -1.244448001598353812e+02 -1.252447311224340183e+02 -1.225394568065986789e+02 -1.199629910982325214e+02 -1.176290086524264211e+02 -1.155758089889744156e+02 -1.139960692005546150e+02 -1.129037707385303548e+02 -1.107960258317017548e+02 -1.086767686309577812e+02 -1.061223248458560704e+02 -1.048585047334302942e+02 -1.040061236265715081e+02 -1.013918460196138085e+02 -9.926225413459974334e+01 -9.672565878259237593e+01 -9.435914835284778235e+01 -9.295172942197498855e+01 -9.002495110125569511e+01 -8.737140489756215800e+01 -8.465545657718004691e+01 -8.264779103096132928e+01 -8.358646947601575050e+01 -8.063813305565730616e+01 -7.790797668167957113e+01 -7.531093164648783045e+01 -7.361079257309248192e+01 -7.158019689499889182e+01 -7.113377048390543678e+01 -6.909957247047825035e+01 -6.599566579405393441e+01 -6.393346141575491259e+01 -6.285422961869873859e+01 -6.188742658705943001e+01 -5.939835440338226391e+01 -5.705086175702501805e+01 -5.467601619819640746e+01 -5.314785501068783446e+01 -5.098000550121726349e+01 -5.058545912775053921e+01 -4.845606197997192766e+01 -4.749621451268036765e+01 -4.661023106024802587e+01 -4.586908348056502405e+01 -4.687826974538489821e+01 -4.622324036111264434e+01 -4.577770521410337778e+01 -4.591842344703034229e+01 -4.681276234220712951e+01 -4.576191928558549193e+01 -4.599952557803172937e+01 -4.692964489139685469e+01 -4.696352380153710016e+01 -4.705507694715720390e+01 -4.745031451528449651e+01 -4.716089532875495394e+01 -4.750425962890112430e+01 -4.871122394173166015e+01 -4.897608365647997886e+01 -4.837722838973403583e+01 -4.893997976714851461e+01 -4.950214354588025856e+01 -4.979166992697204819e+01 -5.066653584641609598e+01 -5.038437674119934684e+01 -5.080973721796954123e+01 -5.204644484137759264e+01 -5.198828071802134332e+01 -5.289353639593088729e+01 -5.339253601463268950e+01 -5.378914923895868583e+01 -5.341228598261928084e+01 -5.417900448558010140e+01 -5.448991765187152225e+01 -5.481164306737111502e+01 -5.520161832022664328e+01 -5.491651549951164668e+01
-1.776767521889951809e+02 -1.766503255150279301e+02 -1.822508134308479271e+02 -1.723521782674552014e+02 -1.695194666672002199e+02 -1.672327641128362643e+02 -1.676469680282332888e+02 -1.648391208267401566e+02 -1.616442133562400443e+02 -1.605330399767623817e+02 -1.586487405225314831e+02 -1.570002910969186587e+02 -1.556465256892447826e+02 -1.532288295298615139e+02 -1.498253922719870843e+02 -1.484101502246492714e+02 -1.484308423380059310e+02 -1.448103542053826231e+02 -1.425257013501654910e+02 -1.414829583566208839e+02 -1.374320218789649743e+02 -1.356233712346952416e+02 -1.325067917157701629e+02 -1.300675725615676015e+02 -1.278874139416901414e+02 -1.276489548336045345e+02 -1.260792200112826862e+02 -1.229885896006959172e+02 -1.201265159518565042e+02 -1.182557321231169283e+02 -1.167485724494983970e+02 -1.157848984554688769e+02 -1.134031974981590309e+02 -1.105642142799975147e+02 -1.083268574055068996e+02 -1.068171243393657903e+02 -1.059648005317311146e+02 -1.036799303479448042e+02 -1.007751556596957272e+02 -9.845523396762290247e+01 -9.721283575147262468e+01 -9.632038935957687897e+01 -9.345159506917713088e+01 -9.105622983332479237e+01 -8.873454569849980089e+01 -8.711737060975663383e+01 -8.639405352414826211e+01 -8.344328330464296073e+01 -8.127444454793779016e+01 -7.880643820167642843e+01 -7.624016570603011189e+01 -7.452088433292163927e+01 -7.166307563409174008e+01 -6.857236176744203249e+01 -6.598578142273160552e+01 -6.651042788821214913e+01 -6.433579993629575711e+01 -6.147295767330290772e+01 -5.884363559376806307e+01 -5.624455558463132121e+01 -5.378117276165236404e+01 -5.457440040470419262e+01 -5.119683527734315476e+01 -4.933411242403624897e+01 -4.796225500047348334e+01 -4.581799379551137008e+01 -4.792182506057054781e+01 -4.676632921872908355e+01 -4.516541007660501350e+01 -4.540252882460239903e+01 -4.612729335523275864e+01 -4.538551198952897181e+01 -4.522034987556517649e+01 -4.547831565018186950e+01 -4.568735820504008416e+01 -4.567961414293456812e+01 -4.646846732621729359e+01 -4.597433373408824764e+01 -4.679423389608218997e+01 -4.720436094941151595e+01 -4.700366856208816557e+01 -4.740307877781799561e+01 -4.794805186074377445e+01 -4.785387090774654695e+01 -4.881357210426862991e+01 -4.933628680530020461e+01 -4.895440991534294994e+01 -5.039480233247296326e+01 -5.010795989118439309e+01 -5.069879411121141288e+01 -5.170649332384040520e+01 -5.178566893201723076e+01 -5.234469795697101091e+01 -5.351837729083253237e+01 -5.356255342836422528e+01 -5.324861365802641444e+01 -5.394719304474968169e+01 -5.445671838097591433e+01 -5.511379814547760958e+01 -5.462309785332131895e+01
